ply
format ascii 1.0
comment this is my Proccessing file
element vertex 1433
property float x
property float y
property float z
end_header
0.031453107 -0.058757417 -0.72745377 
0.031243704 -0.052253194 -0.72261065 
0.031037072 -0.045835003 -0.7178316 
0.030833153 -0.03950115 -0.71311533 
0.030765774 -0.0333953 -0.711557 
0.030833153 -0.027435727 -0.71311533 
0.030968798 -0.021497175 -0.71625257 
0.031382993 -0.015644401 -0.72583216 
0.031523533 -0.00954667 -0.7290826 
0.031736717 -0.0034017323 -0.73401314 
0.031952806 0.0028268844 -0.7390109 
0.02960141 0.008410567 -0.68462735 
0.029477453 0.014142808 -0.68176043 
0.029539302 0.019952042 -0.6831909 
0.031382993 0.027337637 -0.72583216 
0.031382993 0.03347793 -0.72583216 
0.031523533 0.039795637 -0.7290826 
0.031453107 0.04586074 -0.72745377 
0.031105645 0.051440142 -0.7194176 
0.0 0.0 -0.0 
0.029852476 0.061049417 -0.69043404 
0.02966378 0.06646744 -0.68606985 
0.02960141 0.07211941 -0.68462735 
0.02966378 0.078075275 -0.68606985 
0.029726412 0.084056295 -0.6875184 
0.0 0.0 -0.0 
0.0 0.0 -0.0 
0.16838458 0.5749716 -3.8944323 
0.17251112 0.6228152 -3.9898717 
0.17465116 0.664713 -4.039367 
0.17909461 0.7166656 -4.142136 
0.17909461 0.75170666 -4.142136 
0.176845 0.77686536 -4.0901065 
0.17465116 0.8013997 -4.039367 
0.17465116 0.83557135 -4.039367 
0.17465116 0.869743 -4.039367 
0.17251112 0.8928388 -3.9898717 
0.17251112 0.9265917 -3.9898717 
0.16838458 0.9373728 -3.8944323 
0.16838458 0.9703184 -3.8944323 
0.16838458 1.003264 -3.8944323 
0.16838458 1.0362095 -3.8944323 
0.16838458 1.0691551 -3.8944323 
0.16445085 1.0763538 -3.8034523 
0.03549765 0.23928243 -0.82099676 
0.034287337 0.2378325 -0.7930044 
0.034371044 0.24513806 -0.7949404 
0.03445516 0.25247937 -0.79688585 
0.034371044 0.2585879 -0.7949404 
0.034204036 0.26402366 -0.7910778 
0.034204036 0.27071592 -0.7910778 
0.0 0.0 -0.0 
0.025994219 0.21590927 -0.6011995 
0.025946314 0.22058792 -0.6000915 
0.025898583 0.22524938 -0.59898764 
0.025756441 0.22905254 -0.59570014 
0.02580365 0.23452102 -0.596792 
0.07910532 -0.6289894 -1.5315133 
0.079856515 -0.6218833 -1.5460569 
0.08062212 -0.61464095 -1.5608793 
0.08101045 -0.6043334 -1.5683976 
0.082198225 -0.5997315 -1.5913935 
0.083009616 -0.592056 -1.6071023 
0.08383718 -0.58422744 -1.6231244 
0.08468142 -0.5762412 -1.6394691 
0.085542835 -0.5680925 -1.6561465 
0.08598015 -0.5569147 -1.664613 
0.08731933 -0.55128753 -1.6905402 
0.088235535 -0.5426205 -1.7082783 
0.089646466 -0.5366148 -1.7355946 
0.090126865 -0.52472913 -1.7448953 
0.09110326 -0.51549274 -1.7637988 
0.092101045 -0.506054 -1.7831163 
0.09312093 -0.4964062 -1.8028618 
0.094163656 -0.48654234 -1.8230494 
0.09523 -0.4764551 -1.8436942 
0.09632077 -0.46613678 -1.864812 
0.098004594 -0.45823404 -1.8974116 
0.09916024 -0.4473967 -1.9197854 
0.10034346 -0.4363007 -1.942693 
0.10155526 -0.4249367 -1.966154 
0.10279669 -0.4132949 -1.9901886 
0.10406884 -0.40136492 -2.014818 
0.10537287 -0.38913596 -2.0400646 
0.10671 -0.37659666 -2.065952 
0.10808149 -0.36373502 -2.0925047 
0.11020616 -0.35283545 -2.133639 
0.11093306 -0.33699378 -2.1477122 
0.11241601 -0.32308692 -2.1764228 
0.11393916 -0.30880323 -2.2059116 
0.11550414 -0.29412714 -2.2362103 
0.11711271 -0.2790423 -2.267353 
0.03896714 -0.086464144 -0.7544208 
0.039239883 -0.08064253 -0.75970125 
0.039423846 -0.074563645 -0.7632628 
0.03825802 -0.06609268 -0.7406919 
0.038084753 -0.05955573 -0.7373374 
0.03765838 -0.05272119 -0.7290826 
0.03765838 -0.046553403 -0.7290826 
0.037574247 -0.04029539 -0.72745377 
0.037241444 -0.033838984 -0.72101057 
0.037077244 -0.027617177 -0.7178316 
0.037490487 -0.021784691 -0.72583216 
0.037574247 -0.015679352 -0.72745377 
0.037998706 -0.009632947 -0.7356715 
0.038084753 -0.0034171385 -0.7373374 
0.038345244 0.0028397746 -0.7423806 
0.15629151 0.037172485 -3.0258718 
0.035214107 0.014142808 -0.68176043 
0.03528799 0.019952042 -0.6831909 
0.03817119 0.027833998 -0.7390109 
0.038084753 0.034008592 -0.7373374 
0.037827775 0.03997465 -0.7323622 
0.037407104 0.045656737 -0.72421783 
0.037159164 0.051440142 -0.7194176 
0.036593217 0.056650028 -0.7084606 
0.03596717 0.061571643 -0.6963401 
0.03573789 0.06703239 -0.69190115 
0.035662115 0.072731085 -0.69043404 
0.03573789 0.07873888 -0.69190115 
0.035813995 0.08477226 -0.6933745 
0.0 0.0 -0.0 
0.20115417 0.54202604 -3.8944323 
0.20358914 0.58193165 -3.9415743 
0.20358914 0.61527604 -3.9415743 
0.20358914 0.64862037 -3.9415743 
0.2139485 0.7166656 -4.142136 
0.2139485 0.75170666 -4.142136 
0.2139485 0.7867477 -4.142136 
0.21126108 0.8114662 -4.0901065 
0.2086403 0.83557135 -4.039367 
0.2086403 0.869743 -4.039367 
0.2086403 0.9039147 -4.039367 
0.2086403 0.93808633 -4.039367 
0.20358914 0.9487197 -3.9415743 
0.20358914 0.98206407 -3.9415743 
0.20115417 1.003264 -3.8944323 
0.20358914 1.0487528 -3.9415743 
0.20115417 1.0691551 -3.8944323 
0.20115417 1.1021006 -3.8944323 
0.0 0.0 -0.0 
0.0 0.0 -0.0 
0.04136299 0.24694669 -0.8008055 
0.041670438 0.25560713 -0.8067578 
0.041877955 0.26373893 -0.81077546 
0.04136299 0.26727033 -0.8008055 
0.040761508 0.27005982 -0.78916055 
0.0 0.0 -0.0 
0.031816676 0.22121908 -0.6159847 
0.031577725 0.22472957 -0.6113585 
0.031459592 0.22904137 -0.6090714 
0.03134234 0.23332106 -0.60680133 
0.031284038 0.23801082 -0.6056726 
0.09199219 -0.6289894 -1.5315133 
0.092865765 -0.6218833 -1.5460569 
0.093756095 -0.61464095 -1.5608793 
0.09466366 -0.6072584 -1.5759887 
0.096058436 -0.602677 -1.5992093 
0.09653253 -0.592056 -1.6071023 
0.09701134 -0.58132964 -1.6150737 
0.098476686 -0.5762412 -1.6394691 
0.09947843 -0.5680925 -1.6561465 
0.099986985 -0.5569147 -1.664613 
0.101544335 -0.55128753 -1.6905402 
0.10260979 -0.5426205 -1.7082783 
0.10369785 -0.53376967 -1.7263926 
0.10425058 -0.52193224 -1.7355946 
0.1059447 -0.51549274 -1.7637988 
0.10710503 -0.506054 -1.7831163 
0.10829107 -0.4964062 -1.8028618 
0.10950366 -0.48654234 -1.8230494 
0.11074371 -0.4764551 -1.8436942 
0.11201218 -0.46613678 -1.864812 
0.11397031 -0.45823404 -1.8974116 
0.11599813 -0.45005015 -1.9311713 
0.116690196 -0.4363007 -1.942693 
0.11809941 -0.4249367 -1.966154 
0.119543076 -0.4132949 -1.9901886 
0.12102246 -0.40136492 -2.014818 
0.12253893 -0.38913596 -2.0400646 
0.1240939 -0.37659666 -2.065952 
0.12568882 -0.36373502 -2.0925047 
0.12732528 -0.3505385 -2.119749 
0.12900493 -0.33699378 -2.1477122 
0.13160913 -0.32526097 -2.191068 
0.13250074 -0.30880323 -2.2059116 
0.13432066 -0.29412714 -2.2362103 
0.13714628 -0.28099898 -2.283252 
0.139097 -0.26540554 -2.3157282 
0.045954023 -0.081210956 -0.7650562 
0.046170983 -0.075091705 -0.76866823 
0.046390004 -0.0689144 -0.77231455 
0.046611115 -0.06267821 -0.7759957 
0.0 -0.0 -0.0 
0.15207542 -0.16166037 -2.531797 
0.043990217 -0.04056728 -0.7323622 
0.043793224 -0.034217823 -0.7290826 
0.043695386 -0.02798737 -0.72745377 
0.043793224 -0.021882247 -0.7290826 
0.0438915 -0.015749725 -0.73071873 
0.04428906 -0.00965476 -0.7373374 
0.04449055 -0.0034326846 -0.7406919 
0.044899087 0.002859332 -0.7474933 
0.1800792 0.03683023 -2.998012 
0.18175262 0.06277032 -3.0258718 
0.18175262 0.088368155 -3.0258718 
0.04510618 0.028283337 -0.7509411 
0.044591986 0.034241203 -0.7423806 
0.044389576 0.040337555 -0.7390109 
0.043695386 0.04586074 -0.72745377 
0.043212682 0.051440142 -0.7194176 
0.21119082 0.28114426 -3.5159674 
0.2182611 0.32129613 -3.6336756 
0.22072425 0.35600862 -3.6746829 
0.22582117 0.3960339 -3.759538 
0.23392376 0.44318938 -3.8944323 
0.23965645 0.4878034 -3.9898717 
0.23965645 0.5215564 -3.9898717 
0.2367554 0.54858726 -3.9415743 
0.23965645 0.5890623 -3.9898717 
0.23965645 0.6228152 -3.9898717 
0.23965645 0.65656817 -3.9898717 
0.24567717 0.70766354 -4.0901065 
0.2488024 0.75170666 -4.142136 
0.24567717 0.77686536 -4.0901065 
0.24567717 0.8114662 -4.0901065 
0.24567717 0.84606713 -4.0901065 
0.24262945 0.869743 -4.039367 
0.24262945 0.9039147 -4.039367 
0.24262945 0.93808633 -4.039367 
0.23965645 0.9603447 -3.9898717 
0.24262945 1.0064297 -4.039367 
0.2367554 1.0154084 -3.9415743 
0.23392376 1.0362095 -3.8944323 
0.23392376 1.0691551 -3.8944323 
0.23392376 1.1021006 -3.8944323 
0.23392376 1.1350461 -3.8944323 
0.23392376 1.1679918 -3.8944323 
0.22845894 1.1728815 -3.8034523 
0.22845894 1.2050574 -3.8034523 
0.0 0.0 -0.0 
0.047632765 0.26466668 -0.7930044 
0.04740188 0.27005982 -0.78916055 
0.0 0.0 -0.0 
0.0 0.0 -0.0 
0.0 0.0 -0.0 
0.0 0.0 -0.0 
0.0 0.0 -0.0 
0.036584605 0.23934644 -0.6090714 
0.105374694 -0.6319618 -1.5387508 
0.10638012 -0.62485015 -1.5534327 
0.106890075 -0.61464095 -1.5608793 
0.10792477 -0.6072584 -1.5759887 
0.1089797 -0.5997315 -1.5913935 
0.10951494 -0.5891482 -1.5992093 
0.11115266 -0.58422744 -1.6231244 
0.111709505 -0.5733544 -1.6312559 
0.113414034 -0.5680925 -1.6561465 
0.11457958 -0.55977637 -1.6731666 
0.115769334 -0.55128753 -1.6905402 
0.116984054 -0.5426205 -1.7082783 
0.11822453 -0.53376967 -1.7263926 
0.118854694 -0.52193224 -1.7355946 
0.12078614 -0.51549274 -1.7637988 
0.12210901 -0.506054 -1.7831163 
0.123461194 -0.4964062 -1.8028618 
0.12484366 -0.48654234 -1.8230494 
0.12625742 -0.4764551 -1.8436942 
0.12770359 -0.46613678 -1.864812 
0.12993602 -0.45823404 -1.8974116 
0.1314682 -0.4473967 -1.9197854 
0.13224791 -0.43371308 -1.9311713 
0.13464355 -0.4249367 -1.966154 
0.13628946 -0.4132949 -1.9901886 
0.13883516 -0.40386388 -2.0273626 
0.14058581 -0.39158937 -2.0529268 
0.1414778 -0.37659666 -2.065952 
0.14329614 -0.36373502 -2.0925047 
0.14611305 -0.35283545 -2.133639 
0.14707679 -0.33699378 -2.1477122 
0.15004581 -0.32526097 -2.191068 
0.15209267 -0.31090948 -2.2209575 
0.15419616 -0.29616106 -2.251674 
0.15526988 -0.2790423 -2.267353 
0.15858263 -0.26540554 -2.3157282 
0.15971853 -0.24757598 -2.3323152 
0.16322596 -0.23284893 -2.3835332 
0.16442962 -0.21425341 -2.4011097 
0.16942707 -0.19983523 -2.4740858 
0.16942707 -0.17890531 -2.4740858 
0.17337917 -0.16166037 -2.531797 
0.17473783 -0.14134122 -2.551637 
0.17894462 -0.122638345 -2.6130674 
0.18186355 -0.10217257 -2.6556914 
0.18487924 -0.08102804 -2.6997287 
0.050265715 -0.01582073 -0.73401314 
0.050607964 -0.0096766725 -0.7390109 
0.19627038 -0.013282598 -2.8660696 
0.19801329 0.011060724 -2.8915207 
0.20159365 0.036164287 -2.9438035 
0.20530589 0.062192384 -2.998012 
0.20721374 0.088368155 -3.0258718 
0.21315618 0.11723429 -3.112647 
0.21944949 0.14780493 -3.2045462 
0.22163068 0.17665282 -3.2363973 
0.22844234 0.2103024 -3.3358657 
0.23322095 0.24351215 -3.405646 
0.24077582 0.28114426 -3.5159674 
0.24609035 0.31775025 -3.5935736 
0.24883656 0.35203576 -3.6336756 
0.2574557 0.3960339 -3.759538 
0.26354134 0.43795142 -3.8484046 
0.26992166 0.48189855 -3.9415743 
0.2766186 0.5280264 -4.039367 
0.28009325 0.56925994 -4.0901065 
0.2766186 0.59636974 -4.039367 
0.2766186 0.6305414 -4.039367 
0.2766186 0.664713 -4.039367 
0.28365627 0.7166656 -4.142136 
0.28365627 0.75170666 -4.142136 
0.28365627 0.7867477 -4.142136 
0.28365627 0.8217888 -4.142136 
0.28365627 0.8568298 -4.142136 
0.28009325 0.88066804 -4.0901065 
0.28009325 0.91526896 -4.0901065 
0.2766186 0.93808633 -4.039367 
0.2766186 0.972258 -4.039367 
0.2766186 1.0064297 -4.039367 
0.2766186 1.0406014 -4.039367 
0.26992166 1.0487528 -3.9415743 
0.26669335 1.0691551 -3.8944323 
0.26669335 1.1021006 -3.8944323 
0.26669335 1.1350461 -3.8944323 
0.26354134 1.1541874 -3.8484046 
0.26669335 1.2009373 -3.8944323 
0.26354134 1.2192998 -3.8484046 
0.09504431 0.4514729 -1.3878996 
0.0 0.0 -0.0 
0.09464091 0.4729394 -1.382009 
0.0 0.0 -0.0 
0.0 0.0 -0.0 
0.0 0.0 -0.0 
0.0 0.0 -0.0 
0.0 0.0 -0.0 
0.0 0.0 -0.0 
0.11776594 -0.6289894 -1.5315133 
0.11945144 -0.62485015 -1.5534327 
0.12002405 -0.61464095 -1.5608793 
0.12060217 -0.6043334 -1.5683976 
0.12237044 -0.5997315 -1.5913935 
0.12297144 -0.5891482 -1.5992093 
0.12481039 -0.58422744 -1.6231244 
0.12543567 -0.5733544 -1.6312559 
0.12670518 -0.56521773 -1.6477656 
0.12800066 -0.5569147 -1.664613 
0.12999433 -0.55128753 -1.6905402 
0.13135831 -0.5426205 -1.7082783 
0.13275121 -0.53376967 -1.7263926 
0.13345881 -0.52193224 -1.7355946 
0.13636623 -0.51830024 -1.773405 
0.13786799 -0.50884044 -1.7929348 
0.13863133 -0.4964062 -1.8028618 
0.13940318 -0.4838335 -1.8128995 
0.14177114 -0.4764551 -1.8436942 
0.14339499 -0.46613678 -1.864812 
0.14590174 -0.45823404 -1.8974116 
0.14762218 -0.4473967 -1.9197854 
0.1484977 -0.43371308 -1.9311713 
0.1511877 -0.4249367 -1.966154 
0.15303585 -0.4132949 -1.9901886 
0.15589434 -0.40386388 -2.0273626 
0.15687107 -0.38913596 -2.0400646 
0.15987606 -0.37900135 -2.0791438 
0.16090347 -0.36373502 -2.0925047 
0.1640665 -0.35283545 -2.133639 
0.16514865 -0.33699378 -2.1477122 
0.1684825 -0.32526097 -2.191068 
0.17078085 -0.31090948 -2.2209575 
0.1731428 -0.29616106 -2.251674 
0.17434844 -0.2790423 -2.267353 
0.1768108 -0.26353133 -2.2993753 
0.17934373 -0.24757598 -2.3323152 
0.18328214 -0.23284893 -2.3835332 
0.18463369 -0.21425341 -2.4011097 
0.18881059 -0.1983283 -2.455429 
0.19170177 -0.18027507 -2.4930282 
0.19318084 -0.16041309 -2.512263 
0.1962085 -0.14134122 -2.551637 
0.2009322 -0.122638345 -2.6130674 
0.20420977 -0.10217257 -2.6556914 
0.20759603 -0.08102804 -2.6997287 
0.20933163 -0.058675747 -2.7222996 
0.21289137 -0.036252197 -2.768593 
0.21846393 -0.013166705 -2.8410625 
0.22234392 0.011060724 -2.8915207 
0.22636421 0.036164287 -2.9438035 
0.23053259 0.062192384 -2.998012 
0.23485734 0.08919705 -3.0542543 
0.23934746 0.11723429 -3.112647 
0.24401262 0.1463645 -3.1733162 
0.24886325 0.17665282 -3.2363973 
0.25391063 0.20816976 -3.3020372 
0.259167 0.24099159 -3.3703947 
0.26747268 0.27814093 -3.4784079 
0.27632838 0.31775025 -3.5935736 
0.2825653 0.35600862 -3.6746829 
0.28579053 0.39151353 -3.7166262 
0.29592365 0.43795142 -3.8484046 
0.30308795 0.48189855 -3.9415743 
0.31060773 0.5280264 -4.039367 
0.31450933 0.56925994 -4.0901065 
0.31060773 0.59636974 -4.039367 
0.31060773 0.6305414 -4.039367 
0.31060773 0.664713 -4.039367 
0.31450933 0.70766354 -4.0901065 
0.32261413 0.76139235 -4.195507 
0.32261413 0.7968849 -4.195507 
0.32261413 0.83237743 -4.195507 
0.32261413 0.86787 -4.195507 
0.31851017 0.89187086 -4.142136 
0.31450933 0.91526896 -4.0901065 
0.31060773 0.93808633 -4.039367 
0.31060773 0.972258 -4.039367 
0.31060773 1.0064297 -4.039367 
0.31060773 1.0406014 -4.039367 
0.31060773 1.074773 -4.039367 
0.29946294 1.0691551 -3.8944323 
0.29592365 1.0890751 -3.8484046 
0.10810511 0.40974784 -1.4058769 
0.10764036 0.41982841 -1.399833 
0.10764036 0.43167052 -1.399833 
0.10672275 0.43973175 -1.3878996 
0.105820656 0.44765675 -1.3761681 
0.105820656 0.45929867 -1.3761681 
0.105820656 0.47094056 -1.3761681 
0.105375305 0.4805515 -1.3703765 
0.105375305 0.49214444 -1.3703765 
0.10449575 0.4995327 -1.3589381 
0.0 0.0 -0.0 
0.0 0.0 -0.0 
0.0 0.0 -0.0 
0.13127024 -0.6319618 -1.5387508 
0.13127024 -0.6189445 -1.5387508 
0.13315803 -0.61464095 -1.5608793 
0.1337994 -0.6043334 -1.5683976 
0.13576117 -0.5997315 -1.5913935 
0.13642794 -0.5891482 -1.5992093 
0.13846812 -0.58422744 -1.6231244 
0.13916183 -0.5733544 -1.6312559 
0.14057025 -0.56521773 -1.6477656 
0.14347444 -0.56266767 -1.6818086 
0.14421934 -0.55128753 -1.6905402 
0.14497201 -0.5397886 -1.699363 
0.14727789 -0.53376967 -1.7263926 
0.14806291 -0.52193224 -1.7355946 
0.150469 -0.51549274 -1.7637988 
0.15211698 -0.506054 -1.7831163 
0.15380146 -0.4964062 -1.8028618 
0.15465777 -0.4838335 -1.8128995 
0.15728486 -0.4764551 -1.8436942 
0.16000274 -0.46882173 -1.8755534 
0.16186745 -0.45823404 -1.8974116 
0.16377616 -0.4473967 -1.9197854 
0.1657304 -0.4363007 -1.942693 
0.16672511 -0.42238623 -1.9543531 
0.16978224 -0.4132949 -1.9901886 
0.17295353 -0.40386388 -2.0273626 
0.17403713 -0.38913596 -2.0400646 
0.17737097 -0.37900135 -2.0791438 
0.17966537 -0.36608762 -2.1060388 
0.18201993 -0.35283545 -2.133639 
0.18322052 -0.33699378 -2.1477122 
0.18566981 -0.32308692 -2.1764228 
0.18818548 -0.30880323 -2.2059116 
0.19077025 -0.29412714 -2.2362103 
0.19342703 -0.2790423 -2.267353 
0.19615883 -0.26353133 -2.2993753 
0.19896892 -0.24757598 -2.3323152 
0.20333831 -0.23284893 -2.3835332 
0.20483775 -0.21425341 -2.4011097 
0.20947172 -0.1983283 -2.455429 
0.21267928 -0.18027507 -2.4930282 
0.21432021 -0.16041309 -2.512263 
0.21767917 -0.14134122 -2.551637 
0.22291979 -0.122638345 -2.6130674 
0.22655602 -0.10217257 -2.6556914 
0.22841898 -0.080361746 -2.6775289 
0.23223834 -0.058675747 -2.7222996 
0.23821306 -0.03656308 -2.7923353 
0.24027355 -0.013052817 -2.8164883 
0.24667454 0.011060724 -2.8915207 
0.25342593 0.036494218 -2.9706604 
0.25575927 0.062192384 -2.998012 
0.25813597 0.088368155 -3.0258718 
0.26553875 0.11723429 -3.112647 
0.2707144 0.1463645 -3.1733162 
0.2760958 0.17665282 -3.2363973 
0.28169554 0.20816976 -3.3020372 
0.28752708 0.24099159 -3.3703947 
0.29674166 0.27814093 -3.4784079 
0.30321997 0.31428173 -3.5543468 
0.3134858 0.35600862 -3.6746829 
0.31706396 0.39151353 -3.7166262 
0.32830593 0.43795142 -3.8484046 
0.3362542 0.48189855 -3.9415743 
0.3445969 0.5280264 -4.039367 
0.34892544 0.56925994 -4.0901065 
0.34892544 0.60386086 -4.0901065 
0.34892544 0.63846177 -4.0901065 
0.34892544 0.6730626 -4.0901065 
0.34892544 0.70766354 -4.0901065 
0.362589 0.7713308 -4.250271 
0.362589 0.80728656 -4.250271 
0.3579171 0.83237743 -4.195507 
0.362589 0.87919825 -4.250271 
0.3579171 0.9033625 -4.195507 
0.35336405 0.92691195 -4.142136 
0.34892544 0.9498698 -4.0901065 
0.34892544 0.9844707 -4.0901065 
0.3445969 1.0064297 -4.039367 
0.3445969 1.0406014 -4.039367 
0.3445969 1.074773 -4.039367 
0.3445969 1.1089447 -4.039367 
0.3362542 1.1154416 -3.9415743 
0.11993482 0.40974784 -1.4058769 
0.11941922 0.41982841 -1.399833 
0.118908025 0.42982268 -1.3938408 
0.117898665 0.43786544 -1.382009 
0.11690629 0.44577277 -1.3703765 
0.11690629 0.4573657 -1.3703765 
0.11641635 0.4669932 -1.3646333 
0.11593049 0.47654042 -1.3589381 
0.11593049 0.48803654 -1.3589381 
0.115448676 0.49745658 -1.3532902 
0.114026956 0.502638 -1.3366249 
0.114026956 0.51394534 -1.3366249 
0.11449696 0.5274178 -1.3421342 
0.1435397 -0.6289894 -1.5315133 
0.14421801 -0.6189445 -1.5387508 
0.14559408 -0.61170864 -1.5534327 
0.14699665 -0.6043334 -1.5683976 
0.1491519 -0.5997315 -1.5913935 
0.14988445 -0.5891482 -1.5992093 
0.15212585 -0.58422744 -1.6231244 
0.15365776 -0.5762412 -1.6394691 
0.15522084 -0.5680925 -1.6561465 
0.15681602 -0.55977637 -1.6731666 
0.15844434 -0.55128753 -1.6905402 
0.15927126 -0.5397886 -1.699363 
0.16180459 -0.53376967 -1.7263926 
0.16266704 -0.52193224 -1.7355946 
0.16531044 -0.51549274 -1.7637988 
0.16621077 -0.50329787 -1.773405 
0.16897158 -0.4964062 -1.8028618 
0.17086366 -0.48654234 -1.8230494 
0.17378256 -0.47916824 -1.854193 
0.17680292 -0.4715378 -1.8864192 
0.17783318 -0.45823404 -1.8974116 
0.17993014 -0.4473967 -1.9197854 
0.18207714 -0.4363007 -1.942693 
0.184276 -0.4249367 -1.966154 
0.18652862 -0.4132949 -1.9901886 
0.19001272 -0.40386388 -2.0273626 
0.1912032 -0.38913596 -2.0400646 
0.19362949 -0.37659666 -2.065952 
0.1961181 -0.36373502 -2.0925047 
0.19997339 -0.35283545 -2.133639 
0.20129238 -0.33699378 -2.1477122 
0.20535585 -0.32526097 -2.191068 
0.20674707 -0.30880323 -2.2059116 
0.20958678 -0.29412714 -2.2362103 
0.21250561 -0.2790423 -2.267353 
0.21550687 -0.26353133 -2.2993753 
0.21859412 -0.24757598 -2.3323152 
0.22339448 -0.23284893 -2.3835332 
0.22504182 -0.21425341 -2.4011097 
0.22841044 -0.19684392 -2.4370515 
0.23365681 -0.18027507 -2.4930282 
0.23729037 -0.16166037 -2.531797 
0.23914985 -0.14134122 -2.551637 
0.24490736 -0.122638345 -2.6130674 
0.24688867 -0.101346 -2.634207 
0.2530296 -0.08102804 -2.6997287 
0.25729617 -0.05917044 -2.7452512 
0.2617091 -0.03656308 -2.7923353 
0.266276 -0.013166705 -2.8410625 
0.27100515 0.011060724 -2.8915207 
0.2759053 0.036164287 -2.9438035 
0.28098595 0.062192384 -2.998012 
0.28359708 0.088368155 -3.0258718 
0.29173002 0.11723429 -3.112647 
0.29741618 0.1463645 -3.1733162 
0.30637354 0.17842625 -3.2688878 
0.31265098 0.2103024 -3.3358657 
0.3191911 0.24351215 -3.405646 
0.3260106 0.27814093 -3.4784079 
0.33312792 0.31428173 -3.5543468 
0.34056294 0.35203576 -3.6336756 
0.35235927 0.3960339 -3.759538 
0.36068824 0.43795142 -3.8484046 
0.36942047 0.48189855 -3.9415743 
0.37858602 0.5280264 -4.039367 
0.37858602 0.56219804 -4.039367 
0.37858602 0.59636974 -4.039367 
0.37858602 0.6305414 -4.039367 
0.37858602 0.664713 -4.039367 
0.38334152 0.70766354 -4.0901065 
0.39835277 0.7713308 -4.250271 
0.39835277 0.80728656 -4.250271 
0.39835277 0.8432424 -4.250271 
0.39835277 0.87919825 -4.250271 
0.3932201 0.9033625 -4.195507 
0.3932201 0.93885505 -4.195507 
0.38334152 0.9498698 -4.0901065 
0.37858602 0.972258 -4.039367 
0.38334152 1.0190716 -4.0901065 
0.37858602 1.0406014 -4.039367 
0.3739471 1.0616035 -3.9898717 
0.37858602 1.1089447 -4.039367 
0.37858602 1.1431164 -4.039367 
0.36942047 1.1487858 -3.9415743 
0.36942047 1.1821302 -3.9415743 
0.0 0.0 -0.0 
0.13007963 0.43973175 -1.3878996 
0.12898012 0.44765675 -1.3761681 
0.1284373 0.4573657 -1.3703765 
0.12736525 0.46504426 -1.3589381 
0.12736525 0.47654042 -1.3589381 
0.12631094 0.48399672 -1.3476892 
0.12579031 0.49335575 -1.3421342 
0.12527396 0.502638 -1.3366249 
0.12527396 0.51394534 -1.3366249 
0.12527396 0.52525276 -1.3366249 
0.1571658 -0.6319618 -1.5387508 
0.1571658 -0.6189445 -1.5387508 
0.15866539 -0.61170864 -1.5534327 
0.16019389 -0.6043334 -1.5683976 
0.16254264 -0.5997315 -1.5913935 
0.16414712 -0.592056 -1.6071023 
0.1657836 -0.58422744 -1.6231244 
0.16745302 -0.5762412 -1.6394691 
0.16915643 -0.5680925 -1.6561465 
0.17002118 -0.5569147 -1.664613 
0.17266935 -0.55128753 -1.6905402 
0.1744811 -0.5426205 -1.7082783 
0.17633127 -0.53376967 -1.7263926 
0.1782211 -0.52472913 -1.7448953 
0.18015188 -0.51549274 -1.7637988 
0.18113303 -0.50329787 -1.773405 
0.18414171 -0.4964062 -1.8028618 
0.18516695 -0.4838335 -1.8128995 
0.18831228 -0.4764551 -1.8436942 
0.19046922 -0.46613678 -1.864812 
0.19267614 -0.45557934 -1.8864192 
0.19608413 -0.4473967 -1.9197854 
0.19842388 -0.4363007 -1.942693 
0.20204012 -0.4275182 -1.9780983 
0.20327501 -0.4132949 -1.9901886 
0.20579061 -0.40136492 -2.014818 
0.20836927 -0.38913596 -2.0400646 
0.21101338 -0.37659666 -2.065952 
0.21372543 -0.36373502 -2.0925047 
0.21650812 -0.3505385 -2.119749 
0.21936424 -0.33699378 -2.1477122 
0.22379254 -0.32526097 -2.191068 
0.22530864 -0.30880323 -2.2059116 
0.22998275 -0.29616106 -2.251674 
0.23158419 -0.2790423 -2.267353 
0.23652515 -0.26540554 -2.3157282 
0.23821932 -0.24757598 -2.3323152 
0.24345066 -0.23284893 -2.3835332 
0.2452459 -0.21425341 -2.4011097 
0.24891694 -0.19684392 -2.4370515 
0.25269958 -0.17890531 -2.4740858 
0.2585941 -0.16166037 -2.531797 
0.26062053 -0.14134122 -2.551637 
0.26689494 -0.122638345 -2.6130674 
0.27347896 -0.103012726 -2.6775289 
0.2757464 -0.08102804 -2.6997287 
0.27805176 -0.058675747 -2.7222996 
0.28520513 -0.03656308 -2.7923353 
0.28767207 -0.013052817 -2.8164883 
0.29533577 0.011060724 -2.8915207 
0.30067587 0.036164287 -2.9438035 
0.3090582 0.06277032 -3.0258718 
0.31195715 0.08919705 -3.0542543 
0.32098973 0.11836577 -3.1426888 
0.32411796 0.1463645 -3.1733162 
0.3338795 0.17842625 -3.2688878 
0.33726534 0.20816976 -3.3020372 
0.3478478 0.24351215 -3.405646 
0.3515244 0.2752011 -3.4416425 
0.3630359 0.31428173 -3.5543468 
0.36704245 0.34815064 -3.5935736 
0.37961087 0.39151353 -3.7166262 
0.39307052 0.43795142 -3.8484046 
0.40258676 0.48189855 -3.9415743 
0.40751976 0.5215564 -3.9898717 
0.41257516 0.56219804 -4.039367 
0.41257516 0.59636974 -4.039367 
0.41257516 0.6305414 -4.039367 
0.40751976 0.65656817 -3.9898717 
0.4177576 0.70766354 -4.0901065 
0.43411657 0.7713308 -4.250271 
0.42852306 0.7968849 -4.195507 
0.42852306 0.83237743 -4.195507 
0.42307183 0.8568298 -4.142136 
0.4177576 0.88066804 -4.0901065 
0.4177576 0.91526896 -4.0901065 
0.41257516 0.93808633 -4.039367 
0.41257516 0.972258 -4.039367 
0.41257516 1.0064297 -4.039367 
0.41257516 1.0406014 -4.039367 
0.40751976 1.0616035 -3.9898717 
0.40751976 1.0953565 -3.9898717 
0.40751976 1.1291094 -3.9898717 
0.40751976 1.1628623 -3.9898717 
0.40751976 1.1966153 -3.9898717 
0.0 0.0 -0.0 
0.0 0.0 -0.0 
0.1423649 0.45340553 -1.3938408 
0.14359425 0.469214 -1.4058769 
0.1423649 0.47698835 -1.3938408 
0.13996829 0.4805515 -1.3703765 
0.13879998 0.48803654 -1.3589381 
0.13765104 0.4953977 -1.3476892 
0.13708366 0.5047098 -1.3421342 
0.13708366 0.51606375 -1.3421342 
0.13652094 0.52525276 -1.3366249 
0.17011356 -0.6319618 -1.5387508 
0.17092128 -0.6218833 -1.5460569 
0.17255995 -0.61464095 -1.5608793 
0.17339112 -0.6043334 -1.5683976 
0.17593338 -0.5997315 -1.5913935 
0.17767003 -0.592056 -1.6071023 
0.18034029 -0.58715427 -1.6312559 
0.18034029 -0.5733544 -1.6312559 
0.18309203 -0.5680925 -1.6561465 
0.18497366 -0.55977637 -1.6731666 
0.18689436 -0.55128753 -1.6905402 
0.18885535 -0.5426205 -1.7082783 
0.18985137 -0.5309546 -1.7172878 
0.19290347 -0.52472913 -1.7448953 
0.19499332 -0.51549274 -1.7637988 
0.19605531 -0.50329787 -1.773405 
0.19821438 -0.49367285 -1.7929348 
0.20042154 -0.4838335 -1.8128995 
0.2026784 -0.47377253 -1.8333137 
0.20616063 -0.46613678 -1.864812 
0.20854937 -0.45557934 -1.8864192 
0.2122381 -0.4473967 -1.9197854 
0.21477062 -0.4363007 -1.942693 
0.2173643 -0.4249367 -1.966154 
0.2200214 -0.4132949 -1.9901886 
0.22274424 -0.40136492 -2.014818 
0.22553533 -0.38913596 -2.0400646 
0.22985566 -0.37900135 -2.0791438 
0.23133275 -0.36373502 -2.0925047 
0.23434469 -0.3505385 -2.119749 
0.23743612 -0.33699378 -2.1477122 
0.24222921 -0.32526097 -2.191068 
0.24387023 -0.30880323 -2.2059116 
0.24721985 -0.29412714 -2.2362103 
0.25242046 -0.28099898 -2.283252 
0.25420293 -0.26353133 -2.2993753 
0.25784454 -0.24757598 -2.3323152 
0.26159197 -0.23115684 -2.3662124 
0.26742193 -0.21584506 -2.418947 
0.27145514 -0.1983283 -2.455429 
0.2735177 -0.17890531 -2.4740858 
0.27989784 -0.16166037 -2.531797 
0.28431922 -0.14245756 -2.5717902 
0.28888252 -0.122638345 -2.6130674 
0.29600894 -0.103012726 -2.6775289 
0.2984632 -0.08102804 -2.6997287 
0.30095848 -0.058675747 -2.7222996 
0.30870116 -0.03656308 -2.7923353 
0.31408808 -0.013166705 -2.8410625 
0.3196664 0.011060724 -2.8915207 
0.32841554 0.036494218 -2.9706604 
0.3345193 0.06277032 -3.0258718 
0.3376571 0.08919705 -3.0542543 
0.34411258 0.11723429 -3.112647 
0.3542723 0.14780493 -3.2045462 
0.35779354 0.17665282 -3.2363973 
0.3687901 0.2103024 -3.3358657 
0.3765045 0.24351215 -3.405646 
0.38048404 0.2752011 -3.4416425 
0.39294383 0.31428173 -3.5543468 
0.40624735 0.35600862 -3.6746829 
0.41088432 0.39151353 -3.7166262 
0.42545283 0.43795142 -3.8484046 
0.4305413 0.47613496 -3.8944323 
0.44109243 0.5215564 -3.9898717 
0.44109243 0.5553093 -3.9898717 
0.44109243 0.5890623 -3.9898717 
0.43575302 0.61527604 -3.9415743 
0.43575302 0.64862037 -3.9415743 
0.45217368 0.70766354 -4.0901065 
0.45792574 0.75170666 -4.142136 
0.45792574 0.7867477 -4.142136 
0.45217368 0.8114662 -4.0901065 
0.45217368 0.84606713 -4.0901065 
0.44656432 0.869743 -4.039367 
0.44656432 0.9039147 -4.039367 
0.44656432 0.93808633 -4.039367 
0.44656432 0.972258 -4.039367 
0.44109243 0.9940976 -3.9898717 
0.44656432 1.0406014 -4.039367 
0.44109243 1.0616035 -3.9898717 
0.43575302 1.0820972 -3.9415743 
0.43575302 1.1154416 -3.9415743 
0.4305413 1.1350461 -3.8944323 
0.4305413 1.1679918 -3.8944323 
0.16695763 0.46570593 -1.510204 
0.16243733 0.4655271 -1.4693159 
0.16170764 0.47580993 -1.4627155 
0.15955737 0.48169252 -1.4432654 
0.15815535 0.48956212 -1.4305835 
0.15746355 0.49947 -1.4243258 
0.15542395 0.5048937 -1.4058769 
0.15475579 0.5145653 -1.399833 
0.15475579 0.52640736 -1.399833 
0.15542395 0.5405734 -1.4058769 
0.15542395 0.55246663 -1.4058769 
0.18220033 -0.6289894 -1.5315133 
0.18480802 -0.62485015 -1.5534327 
0.18569393 -0.61464095 -1.5608793 
0.18658836 -0.6043334 -1.5683976 
0.18932411 -0.5997315 -1.5913935 
0.19025394 -0.5891482 -1.5992093 
0.19309907 -0.58422744 -1.6231244 
0.19406645 -0.5733544 -1.6312559 
0.19702762 -0.5680925 -1.6561465 
0.19905247 -0.55977637 -1.6731666 
0.20111935 -0.55128753 -1.6905402 
0.2032296 -0.5426205 -1.7082783 
0.20538463 -0.53376967 -1.7263926 
0.20870423 -0.5275562 -1.7542961 
0.20983475 -0.51549274 -1.7637988 
0.21097757 -0.50329787 -1.773405 
0.21330099 -0.49367285 -1.7929348 
0.21567613 -0.4838335 -1.8128995 
0.21933971 -0.4764551 -1.8436942 
0.22312991 -0.46882173 -1.8755534 
0.22442259 -0.45557934 -1.8864192 
0.22839208 -0.4473967 -1.9197854 
0.23111734 -0.4363007 -1.942693 
0.23390844 -0.4249367 -1.966154 
0.23676778 -0.4132949 -1.9901886 
0.23969787 -0.40136492 -2.014818 
0.2427014 -0.38913596 -2.0400646 
0.24578117 -0.37659666 -2.065952 
0.24894008 -0.36373502 -2.0925047 
0.25383374 -0.35283545 -2.133639 
0.25550798 -0.33699378 -2.1477122 
0.2606659 -0.32526097 -2.191068 
0.2624318 -0.30880323 -2.2059116 
0.26787603 -0.29616106 -2.251674 
0.2716328 -0.28099898 -2.283252 
0.27549642 -0.26540554 -2.3157282 
0.27746972 -0.24757598 -2.3323152 
0.2815024 -0.23115684 -2.3662124 
0.28777608 -0.21584506 -2.418947 
0.29211628 -0.1983283 -2.455429 
0.2943358 -0.17890531 -2.4740858 
0.30120158 -0.16166037 -2.531797 
0.30595946 -0.14245756 -2.5717902 
0.3108701 -0.122638345 -2.6130674 
0.31594098 -0.10217257 -2.6556914 
0.31853893 -0.080361746 -2.6775289 
0.3238652 -0.058675747 -2.7222996 
0.33219716 -0.03656308 -2.7923353 
0.33799413 -0.013166705 -2.8410625 
0.34707913 0.011159825 -2.917428 
0.35021698 0.036164287 -2.9438035 
0.35666603 0.062192384 -2.998012 
0.36335704 0.08919705 -3.0542543 
0.37030387 0.11723429 -3.112647 
0.3775215 0.1463645 -3.1733162 
0.38502613 0.17665282 -3.2363973 
0.39685965 0.2103024 -3.3358657 
0.40516123 0.24351215 -3.405646 
0.41381752 0.27814093 -3.4784079 
0.42285177 0.31428173 -3.5543468 
0.43716785 0.35600862 -3.6746829 
0.44726285 0.3960339 -3.759538 
0.4578351 0.43795142 -3.8484046 
0.4633109 0.47613496 -3.8944323 
0.4633109 0.5090805 -3.8944323 
0.46891928 0.54858726 -3.9415743 
0.4633109 0.5749716 -3.8944323 
0.4633109 0.6079172 -3.8944323 
0.46891928 0.64862037 -3.9415743 
0.4865898 0.70766354 -4.0901065 
0.4927796 0.75170666 -4.142136 
0.4865898 0.77686536 -4.0901065 
0.4865898 0.8114662 -4.0901065 
0.4865898 0.84606713 -4.0901065 
0.48055345 0.869743 -4.039367 
0.48055345 0.9039147 -4.039367 
0.4746651 0.9265917 -3.9898717 
0.48055345 0.972258 -4.039367 
0.46891928 0.98206407 -3.9415743 
0.46891928 1.0154084 -3.9415743 
0.46891928 1.0487528 -3.9415743 
0.46891928 1.0820972 -3.9415743 
0.4633109 1.1021006 -3.8944323 
0.4633109 1.1350461 -3.8944323 
0.4578351 1.1541874 -3.8484046 
0.17966521 0.46570593 -1.510204 
0.17883575 0.47627276 -1.5032319 
0.17719965 0.484516 -1.4894793 
0.1755932 0.49260977 -1.4759761 
0.17401563 0.5005581 -1.4627155 
0.17246613 0.50836486 -1.449691 
0.1717017 0.5183211 -1.4432654 
0.1687105 0.52128834 -1.4181225 
0.1687105 0.53328514 -1.4181225 
0.1687105 0.545282 -1.4181225 
0.16725367 0.55246663 -1.4058769 
0.19600911 -0.6319618 -1.5387508 
0.1988279 -0.62784547 -1.5608793 
0.1988279 -0.61464095 -1.5608793 
0.20075256 -0.6072584 -1.5759887 
0.20271485 -0.5997315 -1.5913935 
0.20371045 -0.5891482 -1.5992093 
0.2067568 -0.58422744 -1.6231244 
0.20779261 -0.5733544 -1.6312559 
0.20989566 -0.56521773 -1.6477656 
0.2120417 -0.5569147 -1.664613 
0.21534435 -0.55128753 -1.6905402 
0.21760388 -0.5426205 -1.7082783 
0.21875152 -0.5309546 -1.7172878 
0.22108348 -0.52193224 -1.7355946 
0.22467619 -0.51549274 -1.7637988 
0.22589983 -0.50329787 -1.773405 
0.2296521 -0.4964062 -1.8028618 
0.23222364 -0.48654234 -1.8230494 
0.23485342 -0.4764551 -1.8436942 
0.23754345 -0.46613678 -1.864812 
0.24029581 -0.45557934 -1.8864192 
0.2431127 -0.44477436 -1.9085329 
0.24746408 -0.4363007 -1.942693 
0.25045258 -0.4249367 -1.966154 
0.25351417 -0.4132949 -1.9901886 
0.2566515 -0.40136492 -2.014818 
0.25986746 -0.38913596 -2.0400646 
0.26316506 -0.37659666 -2.065952 
0.26484546 -0.3614125 -2.0791438 
0.27178717 -0.35283545 -2.133639 
0.27539632 -0.3392313 -2.1619723 
0.27910256 -0.32526097 -2.191068 
0.28290996 -0.31090948 -2.2209575 
0.28682268 -0.29616106 -2.251674 
0.29084516 -0.28099898 -2.283252 
0.29498205 -0.26540554 -2.3157282 
0.29709494 -0.24757598 -2.3323152 
0.30361918 -0.23284893 -2.3835332 
0.3058581 -0.21425341 -2.4011097 
0.31277743 -0.1983283 -2.455429 
0.31515396 -0.17890531 -2.4740858 
0.3225053 -0.16166037 -2.531797 
0.32759973 -0.14245756 -2.5717902 
0.3328577 -0.122638345 -2.6130674 
0.33555052 -0.101346 -2.634207 
0.3438968 -0.08102804 -2.6997287 
0.34677193 -0.058675747 -2.7222996 
0.3556932 -0.03656308 -2.7923353 
0.36190018 -0.013166705 -2.8410625 
0.36832765 0.011060724 -2.8915207 
0.3749875 0.036164287 -2.9438035 
0.3818927 0.062192384 -2.998012 
0.38905695 0.08919705 -3.0542543 
0.40032193 0.11836577 -3.1426888 
0.4042233 0.1463645 -3.1733162 
0.4163974 0.17842625 -3.2688878 
0.42492917 0.2103024 -3.3358657 
0.43381795 0.24351215 -3.405646 
0.44308648 0.27814093 -3.4784079 
0.45275974 0.31428173 -3.5543468 
0.4680884 0.35600862 -3.6746829 
0.4788974 0.3960339 -3.759538 
0.49021742 0.43795142 -3.8484046 
0.4960805 0.47613496 -3.8944323 
0.50208557 0.51524293 -3.9415743 
0.4960805 0.54202604 -3.8944323 
0.4960805 0.5749716 -3.8944323 
0.49021742 0.6007323 -3.8484046 
0.5082378 0.65656817 -3.9898717 
0.5145426 0.6988847 -4.039367 
0.52100587 0.74226445 -4.0901065 
0.5145426 0.767228 -4.039367 
0.5145426 0.8013997 -4.039367 
0.5145426 0.83557135 -4.039367 
0.5082378 0.8590858 -3.9898717 
0.5082378 0.8928388 -3.9898717 
0.5082378 0.9265917 -3.9898717 
0.50208557 0.9487197 -3.9415743 
0.4960805 0.9703184 -3.8944323 
0.4960805 1.003264 -3.8944323 
0.49021742 1.0239627 -3.8484046 
0.4960805 1.0691551 -3.8944323 
0.4960805 1.1021006 -3.8944323 
0.4960805 1.1350461 -3.8944323 
0.49021742 1.1541874 -3.8484046 
0.1950872 0.47227716 -1.5315133 
0.1950872 0.48523325 -1.5315133 
0.1950872 0.49818933 -1.5315133 
0.19060472 0.4994009 -1.4963241 
0.18973282 0.5097169 -1.4894793 
0.18886888 0.51993906 -1.482697 
0.18886888 0.5324822 -1.482697 
0.18549034 0.53527576 -1.4561741 
0.18466452 0.54515654 -1.449691 
0.18384601 0.5549497 -1.4432654 
0.18223056 0.5621756 -1.4305835 
0.2089569 -0.6319618 -1.5387508 
0.21196188 -0.62784547 -1.5608793 
0.21196188 -0.61464095 -1.5608793 
0.21298283 -0.6043334 -1.5683976 
0.2161056 -0.5997315 -1.5913935 
0.21716695 -0.5891482 -1.5992093 
0.22041453 -0.58422744 -1.6231244 
0.22151875 -0.5733544 -1.6312559 
0.22489883 -0.5680925 -1.6561465 
0.22604854 -0.5569147 -1.664613 
0.22956936 -0.55128753 -1.6905402 
0.23197813 -0.5426205 -1.7082783 
0.234438 -0.53376967 -1.7263926 
0.2356876 -0.52193224 -1.7355946 
0.23951763 -0.51549274 -1.7637988 
0.2408221 -0.50329787 -1.773405 
0.24482223 -0.4964062 -1.8028618 
0.24756365 -0.48654234 -1.8230494 
0.25036713 -0.4764551 -1.8436942 
0.25323486 -0.46613678 -1.864812 
0.25616902 -0.45557934 -1.8864192 
0.26070005 -0.4473967 -1.9197854 
0.26224622 -0.43371308 -1.9311713 
0.26699674 -0.4249367 -1.966154 
0.27026054 -0.4132949 -1.9901886 
0.27192256 -0.39889666 -2.0024276 
0.27703354 -0.38913596 -2.0400646 
0.28234035 -0.37900135 -2.0791438 
0.2841547 -0.36373502 -2.0925047 
0.2878544 -0.3505385 -2.119749 
0.2916517 -0.33699378 -2.1477122 
0.29753926 -0.32526097 -2.191068 
0.29955497 -0.30880323 -2.2059116 
0.30576932 -0.29616106 -2.251674 
0.3078985 -0.2790423 -2.267353 
0.31446767 -0.26540554 -2.3157282 
0.31672013 -0.24757598 -2.3323152 
0.32367536 -0.23284893 -2.3835332 
0.32606217 -0.21425341 -2.4011097 
0.33094296 -0.19684392 -2.4370515 
0.33854437 -0.18027507 -2.4930282 
0.34380904 -0.16166037 -2.531797 
0.34650326 -0.14134122 -2.551637 
0.3548453 -0.122638345 -2.6130674 
0.35771596 -0.101346 -2.634207 
0.3666136 -0.08102804 -2.6997287 
0.36967862 -0.058675747 -2.7222996 
0.37918922 -0.03656308 -2.7923353 
0.38246912 -0.013052817 -2.8164883 
0.39265826 0.011060724 -2.8915207 
0.39975807 0.036164287 -2.9438035 
0.4071194 0.062192384 -2.998012 
0.41090265 0.088368155 -3.0258718 
0.42268643 0.11723429 -3.112647 
0.4309251 0.1463645 -3.1733162 
0.44390336 0.17842625 -3.2688878 
0.45299873 0.2103024 -3.3358657 
0.46736285 0.24608599 -3.4416425 
0.47745588 0.28114426 -3.5159674 
0.48266768 0.31428173 -3.5543468 
0.4990089 0.35600862 -3.6746829 
0.5105319 0.3960339 -3.759538 
0.5225997 0.43795142 -3.8484046 
0.5288501 0.47613496 -3.8944323 
0.5288501 0.5090805 -3.8944323 
0.5288501 0.54202604 -3.8944323 
0.5288501 0.5749716 -3.8944323 
0.5225997 0.6007323 -3.8484046 
0.54181045 0.65656817 -3.9898717 
0.5485317 0.6988847 -4.039367 
0.5485317 0.73305637 -4.039367 
0.5485317 0.767228 -4.039367 
0.54181045 0.7915799 -3.9898717 
0.5352518 0.81534225 -3.9415743 
0.5288501 0.83853614 -3.8944323 
0.5352518 0.88203096 -3.9415743 
0.5352518 0.9153753 -3.9415743 
0.5225997 0.92629415 -3.8484046 
0.5225997 0.9588503 -3.8484046 
0.5288501 1.003264 -3.8944323 
0.5225997 1.0239627 -3.8484046 
0.5225997 1.0565189 -3.8484046 
0.5225997 1.0890751 -3.8484046 
0.51649535 1.1085297 -3.8034523 
0.51649535 1.1407056 -3.8034523 
0.20797408 0.47227716 -1.5315133 
0.20994903 0.4898411 -1.5460569 
0.2089569 0.5005436 -1.5387508 
0.20700046 0.5087525 -1.5243437 
0.20508035 0.51680917 -1.510204 
0.2031955 0.5247177 -1.4963241 
0.20226601 0.53491795 -1.4894793 
0.201345 0.5450253 -1.482697 
0.19863157 0.5500544 -1.4627155 
0.19952789 0.5649663 -1.4693159 
0.19774328 0.57223195 -1.4561741 
0.22190467 -0.6319618 -1.5387508 
0.22402197 -0.62485015 -1.5534327 
0.22618008 -0.6176015 -1.5683976 
0.22727478 -0.6072584 -1.5759887 
0.23062345 -0.602677 -1.5992093 
0.23291127 -0.59499264 -1.6150737 
0.23407227 -0.58422744 -1.6231244 
0.23642936 -0.5762412 -1.6394691 
0.23883443 -0.5680925 -1.6561465 
0.24005538 -0.5569147 -1.664613 
0.24379437 -0.55128753 -1.6905402 
0.2450667 -0.5397886 -1.699363 
0.24896468 -0.53376967 -1.7263926 
0.2502917 -0.52193224 -1.7355946 
0.25435907 -0.51549274 -1.7637988 
0.25714487 -0.506054 -1.7831163 
0.25999236 -0.4964062 -1.8028618 
0.26438385 -0.4892817 -1.8333137 
0.26588085 -0.4764551 -1.8436942 
0.2704753 -0.46882173 -1.8755534 
0.2736275 -0.45823404 -1.8974116 
0.27685404 -0.4473967 -1.9197854 
0.28015757 -0.4363007 -1.942693 
0.28354087 -0.4249367 -1.966154 
0.28700694 -0.4132949 -1.9901886 
0.29055876 -0.40136492 -2.014818 
0.29236785 -0.3867131 -2.0273626 
0.29983523 -0.37900135 -2.0791438 
0.30176204 -0.36373502 -2.0925047 
0.30569097 -0.3505385 -2.119749 
0.30972356 -0.33699378 -2.1477122 
0.31597593 -0.32526097 -2.191068 
0.31811655 -0.30880323 -2.2059116 
0.32471597 -0.29616106 -2.251674 
0.32697707 -0.2790423 -2.267353 
0.3339533 -0.26540554 -2.3157282 
0.33877188 -0.24936211 -2.3491416 
0.34373152 -0.23284893 -2.3835332 
0.34626624 -0.21425341 -2.4011097 
0.35144946 -0.19684392 -2.4370515 
0.3567902 -0.17890531 -2.4740858 
0.36511278 -0.16166037 -2.531797 
0.36797392 -0.14134122 -2.551637 
0.37683287 -0.122638345 -2.6130674 
0.37988144 -0.101346 -2.634207 
0.3893304 -0.08102804 -2.6997287 
0.3958952 -0.05917044 -2.7452512 
0.40268525 -0.03656308 -2.7923353 
0.40616837 -0.013052817 -2.8164883 
0.41698888 0.011060724 -2.8915207 
0.42452863 0.036164287 -2.9438035 
0.4323461 0.062192384 -2.998012 
0.44045684 0.08919705 -3.0542543 
0.44887772 0.11723429 -3.112647 
0.46213058 0.14780493 -3.2045462 
0.47140932 0.17842625 -3.2688878 
0.48106828 0.2103024 -3.3358657 
0.49113137 0.24351215 -3.405646 
0.5070409 0.28114426 -3.5159674 
0.5125756 0.31428173 -3.5543468 
0.5299294 0.35600862 -3.6746829 
0.5421665 0.3960339 -3.759538 
0.554982 0.43795142 -3.8484046 
0.554982 0.4705076 -3.8484046 
0.554982 0.5030638 -3.8484046 
0.554982 0.53562 -3.8484046 
0.54849935 0.5615394 -3.8034523 
0.554982 0.6007323 -3.8484046 
0.57538307 0.65656817 -3.9898717 
0.5825209 0.6988847 -4.039367 
0.5825209 0.73305637 -4.039367 
0.57538307 0.757827 -3.9898717 
0.5684181 0.78199786 -3.9415743 
0.5616197 0.80559057 -3.8944323 
0.5616197 0.83853614 -3.8944323 
0.5616197 0.87148166 -3.8944323 
0.5616197 0.90442723 -3.8944323 
0.554982 0.92629415 -3.8484046 
0.554982 0.9588503 -3.8484046 
0.554982 0.9914065 -3.8484046 
0.554982 1.0239627 -3.8484046 
0.54849935 1.0441779 -3.8034523 
0.54849935 1.0763538 -3.8034523 
0.5421665 1.0957308 -3.759538 
0.5359781 1.1146653 -3.7166262 
0.5359781 1.1461067 -3.7166262 
0.22086096 0.48523325 -1.5315133 
0.2229583 0.5029202 -1.5460569 
0.2229583 0.5159993 -1.5460569 
0.22190467 0.5265782 -1.5387508 
0.2188027 0.53205264 -1.5172409 
0.2177879 0.5423608 -1.510204 
0.2177879 0.5551366 -1.510204 
0.21678247 0.5652906 -1.5032319 
0.21578628 0.57535124 -1.4963241 
0.21285188 0.5800135 -1.4759761 
0.23485245 -0.6319618 -1.5387508 
0.23709328 -0.62485015 -1.5534327 
0.23937732 -0.6176015 -1.5683976 
0.2405359 -0.6072584 -1.5759887 
0.24407996 -0.602677 -1.5992093 
0.24528462 -0.592056 -1.6071023 
0.24773 -0.58422744 -1.6231244 
0.25022462 -0.5762412 -1.6394691 
0.25406224 -0.57099676 -1.664613 
0.25406224 -0.5569147 -1.664613 
0.25801936 -0.55128753 -1.6905402 
0.26072666 -0.5426205 -1.7082783 
0.26349136 -0.53376967 -1.7263926 
0.26631534 -0.52472913 -1.7448953 
0.2692005 -0.51549274 -1.7637988 
0.27214885 -0.506054 -1.7831163 
0.2751625 -0.4964062 -1.8028618 
0.27981022 -0.4892817 -1.8333137 
0.28139457 -0.4764551 -1.8436942 
0.2862571 -0.46882173 -1.8755534 
0.2895932 -0.45823404 -1.8974116 
0.293008 -0.4473967 -1.9197854 
0.2965043 -0.4363007 -1.942693 
0.30008504 -0.4249367 -1.966154 
0.30375332 -0.4132949 -1.9901886 
0.3075124 -0.40136492 -2.014818 
0.30942702 -0.3867131 -2.0273626 
0.31531677 -0.37659666 -2.065952 
0.31936938 -0.36373502 -2.0925047 
0.32352754 -0.3505385 -2.119749 
0.32779545 -0.33699378 -2.1477122 
0.3321774 -0.32308692 -2.1764228 
0.33667815 -0.30880323 -2.2059116 
0.34366262 -0.29616106 -2.251674 
0.34605566 -0.2790423 -2.267353 
0.35343894 -0.26540554 -2.3157282 
0.35853866 -0.24936211 -2.3491416 
0.3637877 -0.23284893 -2.3835332 
0.3664703 -0.21425341 -2.4011097 
0.37195596 -0.19684392 -2.4370515 
0.37760833 -0.17890531 -2.4740858 
0.3894446 -0.1629272 -2.551637 
0.39252052 -0.14245756 -2.5717902 
0.39882046 -0.122638345 -2.6130674 
0.4020469 -0.101346 -2.634207 
0.41204718 -0.08102804 -2.6997287 
0.41899505 -0.05917044 -2.7452512 
0.4261813 -0.03656308 -2.7923353 
0.42986763 -0.013052817 -2.8164883 
0.4413195 0.011060724 -2.8915207 
0.4452736 0.035840265 -2.917428 
0.4575728 0.062192384 -2.998012 
0.46615678 0.08919705 -3.0542543 
0.475069 0.11723429 -3.112647 
0.48909515 0.14780493 -3.2045462 
0.49891528 0.17842625 -3.2688878 
0.5091378 0.2103024 -3.3358657 
0.5197881 0.24351215 -3.405646 
0.5252821 0.2752011 -3.4416425 
0.5366259 0.31088814 -3.5159674 
0.5608499 0.35600862 -3.6746829 
0.56725156 0.39151353 -3.7166262 
0.5805034 0.4328358 -3.8034523 
0.573801 0.4596427 -3.759538 
0.5805034 0.49718758 -3.8034523 
0.5805034 0.5293635 -3.8034523 
0.56725156 0.5487204 -3.7166262 
0.5805034 0.5937153 -3.8034523 
0.6015844 0.64862037 -3.9415743 
0.6015844 0.68196476 -3.9415743 
0.6015844 0.71530914 -3.9415743 
0.59438926 0.7396994 -3.8944323 
0.5873643 0.7635132 -3.8484046 
0.5873643 0.79606944 -3.8484046 
0.5873643 0.8286256 -3.8484046 
0.5873643 0.8611818 -3.8484046 
0.5873643 0.893738 -3.8484046 
0.5873643 0.92629415 -3.8484046 
0.5805034 0.9476502 -3.8034523 
0.573801 0.96851313 -3.759538 
0.573801 1.0003176 -3.759538 
0.573801 1.0321219 -3.759538 
0.56725156 1.0517826 -3.7166262 
0.56725156 1.0832239 -3.7166262 
0.56725156 1.1146653 -3.7166262 
0.56725156 1.1461067 -3.7166262 
0.5608499 1.1642591 -3.6746829 
0.5608499 1.1953456 -3.6746829 
0.23822983 0.5209464 -1.5608793 
0.23937732 0.53672373 -1.5683976 
0.23596755 0.54215753 -1.5460569 
0.23596755 0.5552367 -1.5460569 
0.23374783 0.56296974 -1.5315133 
0.2315695 0.5705586 -1.5172409 
0.2315695 0.583394 -1.5172409 
0.2315695 0.5962293 -1.5172409 
0.2466347 -0.6289894 -1.5315133 
0.2489768 -0.6218833 -1.5460569 
0.25257456 -0.6176015 -1.5683976 
0.25503138 -0.6102118 -1.5836536 
0.25753647 -0.602677 -1.5992093 
0.26009125 -0.59499264 -1.6150737 
0.26138774 -0.58422744 -1.6231244 
0.26535597 -0.5791573 -1.6477656 
0.26670563 -0.5680925 -1.6561465 
0.26806906 -0.5569147 -1.664613 
0.27224436 -0.55128753 -1.6905402 
0.2736652 -0.5397886 -1.699363 
0.27801806 -0.53376967 -1.7263926 
0.28099772 -0.52472913 -1.7448953 
0.28404194 -0.51549274 -1.7637988 
0.28715283 -0.506054 -1.7831163 
0.29033262 -0.4964062 -1.8028618 
0.2952366 -0.4892817 -1.8333137 
0.29690826 -0.4764551 -1.8436942 
0.3003091 -0.46613678 -1.864812 
0.30555892 -0.45823404 -1.8974116 
0.31099558 -0.45005015 -1.9311713 
0.312851 -0.4363007 -1.942693 
0.31662917 -0.4249367 -1.966154 
0.32049972 -0.4132949 -1.9901886 
0.32446602 -0.40136492 -2.014818 
0.32853174 -0.38913596 -2.0400646 
0.33270064 -0.37659666 -2.065952 
0.33697668 -0.36373502 -2.0925047 
0.34360096 -0.35283545 -2.133639 
0.3458673 -0.33699378 -2.1477122 
0.35049084 -0.32308692 -2.1764228 
0.35523972 -0.30880323 -2.2059116 
0.36011901 -0.29412714 -2.2362103 
0.36513424 -0.2790423 -2.267353 
0.37292457 -0.26540554 -2.3157282 
0.37559575 -0.24757598 -2.3323152 
0.38105452 -0.23115684 -2.3662124 
0.3866744 -0.21425341 -2.4011097 
0.39246246 -0.19684392 -2.4370515 
0.39842644 -0.17890531 -2.4740858 
0.40772024 -0.16166037 -2.531797 
0.41416076 -0.14245756 -2.5717902 
0.42080802 -0.122638345 -2.6130674 
0.4276722 -0.10217257 -2.6556914 
0.43476397 -0.08102804 -2.6997287 
0.43839878 -0.058675747 -2.7222996 
0.44967732 -0.03656308 -2.7923353 
0.4535669 -0.013052817 -2.8164883 
0.4656501 0.011060724 -2.8915207 
0.46982223 0.035840265 -2.917428 
0.48279947 0.062192384 -2.998012 
0.49185672 0.08919705 -3.0542543 
0.5012603 0.11723429 -3.112647 
0.51103044 0.1463645 -3.1733162 
0.52642125 0.17842625 -3.2688878 
0.54276794 0.2124792 -3.3703947 
0.5484448 0.24351215 -3.405646 
0.56016237 0.27814093 -3.4784079 
0.57239157 0.31428173 -3.5543468 
0.59177047 0.35600862 -3.6746829 
0.598525 0.39151353 -3.7166262 
0.6054355 0.4278383 -3.759538 
0.6054355 0.4596427 -3.759538 
0.6054355 0.49144712 -3.759538 
0.598525 0.517279 -3.7166262 
0.598525 0.5487204 -3.7166262 
0.61974657 0.6007323 -3.8484046 
0.6271589 0.64086276 -3.8944323 
0.6271589 0.67380834 -3.8944323 
0.6271589 0.70675385 -3.8944323 
0.61974657 0.73095703 -3.8484046 
0.61974657 0.7635132 -3.8484046 
0.61250746 0.7867707 -3.8034523 
0.61250746 0.8189466 -3.8034523 
0.61974657 0.8611818 -3.8484046 
0.6054355 0.8730999 -3.759538 
0.61250746 0.9154743 -3.8034523 
0.6054355 0.93670875 -3.759538 
0.598525 0.95745844 -3.7166262 
0.598525 0.98889977 -3.7166262 
0.598525 1.0203412 -3.7166262 
0.598525 1.0517826 -3.7166262 
0.598525 1.0832239 -3.7166262 
0.59177047 1.102086 -3.6746829 
0.59177047 1.1331725 -3.6746829 
0.59177047 1.1642591 -3.6746829 
0.598525 1.2089895 -3.7166262 
0.59177047 1.2264322 -3.6746829 
0.253797 0.5393214 -1.5759887 
0.25503138 0.55534166 -1.5836536 
0.25257456 0.56325996 -1.5683976 
0.2513638 0.5737644 -1.5608793 
0.24780022 0.57864743 -1.5387508 
0.2466347 0.58888185 -1.5315133 
0.2466347 0.60183793 -1.5315133 
0.260748 -0.6319618 -1.5387508 
0.26323593 -0.62485015 -1.5534327 
0.26577178 -0.6176015 -1.5683976 
0.2670581 -0.6072584 -1.5759887 
0.27099296 -0.602677 -1.5992093 
0.27504545 -0.5979585 -1.6231244 
0.2764234 -0.58715427 -1.6312559 
0.28064123 -0.582103 -1.6561465 
0.28064123 -0.5680925 -1.6561465 
0.2820759 -0.5569147 -1.664613 
0.28646937 -0.55128753 -1.6905402 
0.28947517 -0.5426205 -1.7082783 
0.29410404 -0.5366148 -1.7355946 
0.29727307 -0.5275562 -1.7542961 
0.29888338 -0.51549274 -1.7637988 
0.3021568 -0.506054 -1.7831163 
0.30550277 -0.4964062 -1.8028618 
0.30892363 -0.48654234 -1.8230494 
0.31242198 -0.4764551 -1.8436942 
0.3160005 -0.46613678 -1.864812 
0.31966192 -0.45557934 -1.8864192 
0.32531595 -0.4473967 -1.9197854 
0.32919776 -0.4363007 -1.942693 
0.33317333 -0.4249367 -1.966154 
0.33519733 -0.41078416 -1.9780983 
0.34141964 -0.40136492 -2.014818 
0.34354538 -0.3867131 -2.0273626 
0.35008454 -0.37659666 -2.065952 
0.35231993 -0.3614125 -2.0791438 
0.3592007 -0.3505385 -2.119749 
0.36393917 -0.33699378 -2.1477122 
0.3688043 -0.32308692 -2.1764228 
