ply
format ascii 1.0
comment this is my Proccessing file
element vertex 1588
property float x
property float y
property float z
end_header
0.23905586 -0.8678118 2.768593 
0.23310973 -0.8644974 2.6997287 
0.2256269 -0.85443157 2.6130674 
0.22032265 -0.8516135 2.551637 
0.21526204 -0.8489249 2.4930282 
0.2104287 -0.84635705 2.4370515 
0.20580763 -0.84390193 2.3835332 
0.20138519 -0.8415524 2.3323152 
0.19577599 -0.8334574 2.267353 
0.19308695 -0.83714366 2.2362103 
0.1891891 -0.8350728 2.191068 
0.18544552 -0.8330839 2.1477122 
0.17952494 -0.8205578 2.0791438 
0.32977217 1.7011669 4.142136 
0.3383812 1.716813 4.250271 
0.3383812 1.6880482 4.250271 
0.34285653 1.6812288 4.3064837 
0.3474518 1.6742264 4.364203 
0.35702208 1.6899922 4.4844112 
0.35702208 1.6596429 4.4844112 
0.36200765 1.6520458 4.5470333 
0.22423199 1.0042362 2.8164883 
0.22423199 0.985175 2.8164883 
0.22230907 0.9578288 2.7923353 
0.22041886 0.93094766 2.768593 
0.22041886 0.9122106 2.768593 
0.22041886 0.8934735 2.768593 
0.21856052 0.8673616 2.7452512 
0.21673325 0.84168625 2.7222996 
0.21673325 0.82326245 2.7222996 
0.21673325 0.8048387 2.7222996 
0.21673325 0.7864149 2.7222996 
0.21493629 0.7616237 2.6997287 
0.21493629 0.74335265 2.6997287 
0.21316887 0.71911925 2.6775289 
0.21316887 0.7009985 2.6775289 
0.2114303 0.67730826 2.6556914 
0.2114303 0.65933526 2.6556914 
0.20971985 0.6361737 2.634207 
0.20971985 0.6183461 2.634207 
0.20971985 0.6005185 2.634207 
0.20803684 0.5780148 2.6130674 
0.20803684 0.5603303 2.6130674 
0.20803684 0.54264575 2.6130674 
0.20803684 0.52496123 2.6130674 
0.20638065 0.50323826 2.5922647 
0.20803684 0.4895922 2.6130674 
0.20314611 0.4608136 2.551637 
0.20314611 0.44354483 2.551637 
0.20314611 0.42627606 2.551637 
0.20314611 0.40900728 2.551637 
0.20314611 0.3917385 2.551637 
0.20156656 0.37155807 2.531797 
0.20156656 0.35442358 2.531797 
0.20314611 0.33993217 2.551637 
0.20156656 0.32015455 2.531797 
0.20001139 0.30068213 2.512263 
0.19848002 0.28150785 2.4930282 
0.19848002 0.2646357 2.4930282 
0.19848002 0.24776359 2.4930282 
0.19848002 0.23089147 2.4930282 
0.19697195 0.21239318 2.4740858 
0.19697195 0.19564925 2.4740858 
0.1954866 0.17755622 2.455429 
0.1954866 0.16093855 2.455429 
0.1954866 0.14432088 2.455429 
0.1954866 0.1277032 2.455429 
0.1940235 0.110254124 2.4370515 
0.1940235 0.093760826 2.4370515 
0.1954866 0.07785019 2.455429 
0.1954866 0.061232526 2.455429 
0.19258213 0.043951977 2.418947 
0.19116202 0.027377825 2.4011097 
0.19116202 0.011127775 2.4011097 
0.19116202 -0.0051222774 2.4011097 
0.1897627 -0.02121588 2.3835332 
0.1897627 -0.037346978 2.3835332 
0.18838371 -0.05308946 2.3662124 
0.18838371 -0.06910334 2.3662124 
0.1897627 -0.085740276 2.3835332 
0.18838371 -0.10113109 2.3662124 
0.18702464 -0.11629983 2.3491416 
0.18436447 -0.13031784 2.3157282 
0.0 -0.0 0.0 
0.0 -0.0 0.0 
0.0 -0.0 0.0 
0.20001139 -0.20938708 2.512263 
0.20156656 -0.22814967 2.531797 
0.7279733 -0.88586277 9.143781 
0.7279733 -0.9477454 9.143781 
0.74900645 -1.0387989 9.40797 
0.74900645 -1.1024696 9.40797 
0.7279733 -1.1333932 9.143781 
0.7080891 -1.1626276 8.894024 
0.0 -0.0 0.0 
0.0 -0.0 0.0 
0.0 -0.0 0.0 
0.0 -0.0 0.0 
0.0 -0.0 0.0 
0.0 -0.0 0.0 
0.0 -0.0 0.0 
0.0 -0.0 0.0 
0.0 -0.0 0.0 
0.37783647 -0.9415645 4.7458525 
0.0 -0.0 0.0 
0.0 -0.0 0.0 
0.0 -0.0 0.0 
0.3215903 -0.910749 4.039367 
0.31380463 -0.9153753 3.9415743 
0.306387 -0.91978294 3.8484046 
0.2958956 -0.91344047 3.7166262 
0.28297588 -0.8976117 3.5543468 
0.2711372 -0.8831074 3.405646 
0.26558173 -0.8875891 3.3358657 
0.26024935 -0.89189094 3.2688878 
0.25264052 -0.8872911 3.1733162 
0.24090186 -0.8665424 3.0258718 
0.1940235 -0.71441066 2.4370515 
0.1940235 -0.730904 2.4370515 
0.22230907 -0.856356 2.7923353 
0.22041886 -0.8678118 2.768593 
0.21493629 -0.8644974 2.6997287 
0.20803684 -0.85443157 2.6130674 
0.20314611 -0.8516135 2.551637 
0.19848002 -0.8489249 2.4930282 
0.1940235 -0.84635705 2.4370515 
0.18838371 -0.8377694 2.3662124 
0.18436447 -0.8355674 2.3157282 
0.18177891 -0.8393017 2.283252 
0.17926484 -0.8429326 2.251674 
0.17443976 -0.8350728 2.191068 
0.16986762 -0.82762504 2.133639 
0.16552903 -0.8205578 2.0791438 
0.298097 1.6797984 4.0901065 
0.30577886 1.6946921 4.195507 
0.30977017 1.6880482 4.250271 
0.30977017 1.6592836 4.250271 
0.31807384 1.6742264 4.364203 
0.32683492 1.6899922 4.4844112 
0.32683492 1.6596429 4.4844112 
0.33139896 1.6520458 4.5470333 
0.20527259 1.0042362 2.8164883 
0.20351225 0.9767266 2.7923353 
0.20351225 0.9578288 2.7923353 
0.20178185 0.93094766 2.768593 
0.20008065 0.9045198 2.7452512 
0.20008065 0.8859407 2.7452512 
0.19840787 0.86011004 2.7222996 
0.19840787 0.84168625 2.7222996 
0.19840787 0.82326245 2.7222996 
0.19840787 0.8048387 2.7222996 
0.19676286 0.77989465 2.6997287 
0.19676286 0.7616237 2.6997287 
0.19676286 0.74335265 2.6997287 
0.19514488 0.71911925 2.6775289 
0.19514488 0.7009985 2.6775289 
0.19355331 0.67730826 2.6556914 
0.19355331 0.65933526 2.6556914 
0.19355331 0.6413623 2.6556914 
0.19198747 0.6183461 2.634207 
0.19198747 0.6005185 2.634207 
0.19044676 0.5780148 2.6130674 
0.19044676 0.5603303 2.6130674 
0.19044676 0.54264575 2.6130674 
0.19044676 0.52496123 2.6130674 
0.18893062 0.50323826 2.5922647 
0.18893062 0.48569453 2.5922647 
0.18596956 0.4608136 2.551637 
0.18596956 0.44354483 2.551637 
0.18596956 0.42627606 2.551637 
0.18596956 0.40900728 2.551637 
0.18596956 0.3917385 2.551637 
0.18596956 0.37446973 2.551637 
0.18596956 0.35720095 2.551637 
0.18452358 0.33728907 2.531797 
0.1830999 0.31768444 2.512263 
0.18031745 0.29611287 2.4740858 
0.18031745 0.2793689 2.4740858 
0.18169801 0.2646357 2.4930282 
0.18169801 0.24776359 2.4930282 
0.18031745 0.22913712 2.4740858 
0.18031745 0.21239318 2.4740858 
0.1789577 0.19417389 2.455429 
0.1789577 0.17755622 2.455429 
0.1789577 0.16093855 2.455429 
0.1789577 0.14432088 2.455429 
0.1789577 0.1277032 2.455429 
0.1776183 0.110254124 2.4370515 
0.1762988 0.093064286 2.418947 
0.1762988 0.07669352 2.418947 
0.1762988 0.060322747 2.418947 
0.17499878 0.043627877 2.4011097 
0.17499878 0.027377825 2.4011097 
0.17499878 0.011127775 2.4011097 
0.17499878 -0.0051222774 2.4011097 
0.17371775 -0.02121588 2.3835332 
0.17371775 -0.037346978 2.3835332 
0.17245537 -0.05308946 2.3662124 
0.17121121 -0.0686048 2.3491416 
0.17245537 -0.08511721 2.3662124 
0.17245537 -0.10113109 2.3662124 
0.17245537 -0.117144965 2.3662124 
0.17245537 -0.13315883 2.3662124 
0.0 -0.0 0.0 
0.0 -0.0 0.0 
0.0 -0.0 0.0 
0.18169801 -0.20778394 2.4930282 
0.18169801 -0.22465606 2.4930282 
0.6482183 -0.86166596 8.894024 
0.685676 -0.9751284 9.40797 
0.6664212 -1.0096279 9.143781 
0.0 -0.0 0.0 
0.0 -0.0 0.0 
0.0 -0.0 0.0 
0.0 -0.0 0.0 
0.0 -0.0 0.0 
0.0 -0.0 0.0 
0.0 -0.0 0.0 
0.0 -0.0 0.0 
0.0 -0.0 0.0 
0.0 -0.0 0.0 
0.0 -0.0 0.0 
0.0 -0.0 0.0 
0.0 -0.0 0.0 
0.0 -0.0 0.0 
0.0 -0.0 0.0 
0.30977017 -0.9295364 4.250271 
0.30188906 -0.93392015 4.142136 
0.29079166 -0.9265917 3.9898717 
0.2838358 -0.9307837 3.8944323 
0.0 -0.0 0.0 
0.25904953 -0.8976117 3.5543468 
0.25083536 -0.8924416 3.4416425 
0.24066058 -0.8785882 3.3020372 
0.24066058 -0.9009355 3.3020372 
0.2335552 -0.89602333 3.2045462 
0.2247093 -0.8829526 3.0831742 
0.1789577 -0.71979797 2.455429 
0.1789577 -0.7364156 2.455429 
0.20351225 -0.856356 2.7923353 
0.20008065 -0.8604953 2.7452512 
0.19676286 -0.8644974 2.6997287 
0.19044676 -0.85443157 2.6130674 
0.18452358 -0.8449919 2.531797 
0.18031745 -0.84247464 2.4740858 
0.1789577 -0.85273933 2.455429 
0.17371775 -0.84390193 2.3835332 
0.16877596 -0.8355674 2.3157282 
0.16525026 -0.8334574 2.267353 
0.1629805 -0.83714366 2.2362103 
0.15862304 -0.8294912 2.1764228 
0.15550485 -0.82762504 2.133639 
0.15250689 -0.8258308 2.0925047 
0.27056414 1.6797984 4.0901065 
0.27400595 1.673134 4.142136 
0.27753648 1.6662982 4.195507 
0.28115913 1.6592836 4.250271 
0.28869587 1.6742264 4.364203 
0.29664773 1.6899922 4.4844112 
0.29664773 1.6596429 4.4844112 
0.18631317 1.0232974 2.8164883 
0.18471543 0.99562436 2.7923353 
0.18471543 0.9767266 2.7923353 
0.18471543 0.9578288 2.7923353 
0.18314487 0.93094766 2.768593 
0.1800825 0.8969576 2.7222996 
0.1800825 0.8785338 2.7222996 
0.1800825 0.86011004 2.7222996 
0.1800825 0.84168625 2.7222996 
0.1800825 0.82326245 2.7222996 
0.17858942 0.7981657 2.6997287 
0.17858942 0.77989465 2.6997287 
0.17858942 0.7616237 2.6997287 
0.17858942 0.74335265 2.6997287 
0.17858942 0.7250816 2.6997287 
0.17712088 0.7009985 2.6775289 
0.17712088 0.6828777 2.6775289 
0.17567632 0.65933526 2.6556914 
0.1742551 0.6361737 2.634207 
0.1742551 0.6183461 2.634207 
0.1742551 0.6005185 2.634207 
0.1728567 0.5780148 2.6130674 
0.1728567 0.5603303 2.6130674 
0.1728567 0.54264575 2.6130674 
0.1728567 0.52496123 2.6130674 
0.17148058 0.50323826 2.5922647 
0.17012618 0.48185837 2.5717902 
0.17012618 0.46445322 2.5717902 
0.17012618 0.44704804 2.5717902 
0.16879302 0.42627606 2.551637 
0.16879302 0.40900728 2.551637 
0.16879302 0.3917385 2.551637 
0.16879302 0.37446973 2.551637 
0.16879302 0.35720095 2.551637 
0.16748059 0.33728907 2.531797 
0.16491601 0.31525213 2.4930282 
0.16491601 0.29838 2.4930282 
0.16366296 0.2793689 2.4740858 
0.16366296 0.26262498 2.4740858 
0.16366296 0.24588105 2.4740858 
0.16366296 0.22913712 2.4740858 
0.16366296 0.21239318 2.4740858 
0.1624288 0.19417389 2.455429 
0.1624288 0.17755622 2.455429 
0.1624288 0.16093855 2.455429 
0.1624288 0.14432088 2.455429 
0.1624288 0.1277032 2.455429 
0.1612131 0.110254124 2.4370515 
0.16001546 0.093064286 2.418947 
0.16001546 0.07669352 2.418947 
0.15883552 0.05987793 2.4011097 
0.15883552 0.043627877 2.4011097 
0.15883552 0.027377825 2.4011097 
0.15883552 0.011127775 2.4011097 
0.15767282 -0.0050847814 2.3835332 
0.15767282 -0.02121588 2.3835332 
0.15767282 -0.037346978 2.3835332 
0.15652703 -0.05308946 2.3662124 
0.15539777 -0.0686048 2.3491416 
0.15539777 -0.084503144 2.3491416 
0.15539777 -0.10040149 2.3491416 
0.15652703 -0.117144965 2.3662124 
0.15767282 -0.13413358 2.3835332 
0.0 -0.0 0.0 
0.0 -0.0 0.0 
0.0 -0.0 0.0 
0.16491601 -0.20778394 2.4930282 
0.16491601 -0.22465606 2.4930282 
0.0 -0.0 0.0 
0.6408618 -1.0041409 9.6878805 
0.6223455 -1.0387989 9.40797 
0.0 -0.0 0.0 
0.0 -0.0 0.0 
0.0 -0.0 0.0 
0.0 -0.0 0.0 
0.0 -0.0 0.0 
0.0 -0.0 0.0 
0.0 -0.0 0.0 
0.0 -0.0 0.0 
0.0 -0.0 0.0 
0.0 -0.0 0.0 
0.0 -0.0 0.0 
0.0 -0.0 0.0 
0.0 -0.0 0.0 
0.0 -0.0 0.0 
0.0 -0.0 0.0 
0.28115913 -0.9295364 4.250271 
0.27400595 -0.93392015 4.142136 
0.26720768 -0.93808633 4.039367 
0.0 -0.0 0.0 
0.0 -0.0 0.0 
0.0 -0.0 0.0 
0.23258433 -0.9117145 3.5159674 
0.0 -0.0 0.0 
0.2162398 -0.89189094 3.2688878 
0.20991765 -0.8872911 3.1733162 
0.20395468 -0.8829526 3.0831742 
0.1612131 -0.71441066 2.4370515 
0.1612131 -0.730904 2.4370515 
0.18471543 -0.856356 2.7923353 
0.18160078 -0.8604953 2.7452512 
0.17858942 -0.8644974 2.6997287 
0.1728567 -0.85443157 2.6130674 
0.16748059 -0.8449919 2.531797 
0.16366296 -0.84247464 2.4740858 
0.1624288 -0.85273933 2.455429 
0.15767282 -0.84390193 2.3835332 
0.1542847 -0.8415524 2.3323152 
0.1499874 -0.8334574 2.267353 
0.14792728 -0.83714366 2.2362103 
0.14494106 -0.8350728 2.191068 
0.1411421 -0.82762504 2.133639 
0.13842103 -0.8258308 2.0925047 
0.24303126 1.6797984 4.0901065 
0.24303126 1.6521177 4.0901065 
0.24929409 1.6662982 4.195507 
0.25254813 1.6592836 4.250271 
0.25588825 1.6520838 4.3064837 
0.26646057 1.6899922 4.4844112 
0.27018154 1.6828189 4.5470333 
0.26646057 1.6292937 4.4844112 
0.1659186 0.99562436 2.7923353 
0.1659186 0.9767266 2.7923353 
0.16450787 0.94968474 2.768593 
0.16312091 0.9230989 2.7452512 
0.16312091 0.9045198 2.7452512 
0.16312091 0.8859407 2.7452512 
0.16175714 0.86011004 2.7222996 
0.16175714 0.84168625 2.7222996 
0.16175714 0.82326245 2.7222996 
0.16041599 0.7981657 2.6997287 
0.16041599 0.77989465 2.6997287 
0.1590969 0.75536084 2.6775289 
0.16041599 0.74335265 2.6997287 
0.16041599 0.7250816 2.6997287 
0.15779932 0.69528127 2.6556914 
0.15779932 0.67730826 2.6556914 
0.15652274 0.6540013 2.634207 
0.15652274 0.6361737 2.634207 
0.15652274 0.6183461 2.634207 
0.15652274 0.6005185 2.634207 
0.15652274 0.58269095 2.634207 
0.15526664 0.5603303 2.6130674 
0.15526664 0.54264575 2.6130674 
0.15403055 0.520782 2.5922647 
0.15403055 0.50323826 2.5922647 
0.15403055 0.48569453 2.5922647 
0.15403055 0.4681508 2.5922647 
0.15281397 0.44704804 2.5717902 
0.15161648 0.42627606 2.551637 
0.15161648 0.40900728 2.551637 
0.15043761 0.3886926 2.531797 
0.15043761 0.37155807 2.531797 
0.14927691 0.35168904 2.512263 
0.14927691 0.33468673 2.512263 
0.14927691 0.31768444 2.512263 
0.14927691 0.30068213 2.512263 
0.148134 0.28150785 2.4930282 
0.14700845 0.26262498 2.4740858 
0.14700845 0.24588105 2.4740858 
0.14700845 0.22913712 2.4740858 
0.14700845 0.21239318 2.4740858 
0.14589988 0.19417389 2.455429 
0.14589988 0.17755622 2.455429 
0.14589988 0.16093855 2.455429 
0.14589988 0.14432088 2.455429 
0.14480789 0.12674741 2.4370515 
0.14480789 0.110254124 2.4370515 
0.14373213 0.093064286 2.418947 
0.14373213 0.07669352 2.418947 
0.14267226 0.05987793 2.4011097 
0.14267226 0.043627877 2.4011097 
0.14267226 0.027377825 2.4011097 
0.14267226 0.011127775 2.4011097 
0.14162788 -0.0050847814 2.3835332 
0.14162788 -0.02121588 2.3835332 
0.14059868 -0.037075583 2.3662124 
0.14059868 -0.05308946 2.3662124 
0.14059868 -0.06910334 2.3662124 
0.14059868 -0.08511721 2.3662124 
0.13958435 -0.10040149 2.3491416 
0.13958435 -0.11629983 2.3491416 
0.14059868 -0.13315883 2.3662124 
0.0 -0.0 0.0 
0.0 -0.0 0.0 
0.0 -0.0 0.0 
0.148134 -0.20778394 2.4930282 
0.148134 -0.22465606 2.4930282 
0.0 -0.0 0.0 
0.5932992 -1.0349326 9.984958 
0.57564706 -1.0697057 9.6878805 
0.55901504 -1.1024696 9.40797 
0.57564706 -1.2008356 9.6878805 
0.0 -0.0 0.0 
0.0 -0.0 0.0 
0.0 -0.0 0.0 
0.0 -0.0 0.0 
0.0 -0.0 0.0 
0.0 -0.0 0.0 
0.0 -0.0 0.0 
0.0 -0.0 0.0 
0.0 -0.0 0.0 
0.0 -0.0 0.0 
0.0 -0.0 0.0 
0.0 -0.0 0.0 
0.0 -0.0 0.0 
0.0 -0.0 0.0 
0.24303126 -0.9221891 4.0901065 
0.0 -0.0 0.0 
0.0 -0.0 0.0 
0.0 -0.0 0.0 
0.0 -0.0 0.0 
0.20668456 -0.90197504 3.4784079 
0.19821481 -0.8875891 3.3358657 
0.19230446 -0.8830261 3.2363973 
0.18673636 -0.8787273 3.1426888 
0.18148166 -0.8746705 3.0542543 
0.14373213 -0.7091034 2.418947 
0.14480789 -0.730904 2.4370515 
0.1659186 -0.856356 2.7923353 
0.16312091 -0.8604953 2.7452512 
0.16041599 -0.8644974 2.6997287 
0.15526664 -0.85443157 2.6130674 
0.15161648 -0.8516135 2.551637 
0.148134 -0.8489249 2.4930282 
0.14480789 -0.84635705 2.4370515 
0.14162788 -0.84390193 2.3835332 
0.13858454 -0.8415524 2.3323152 
0.13472453 -0.8334574 2.267353 
0.13287406 -0.83714366 2.2362103 
0.12846288 -0.82398367 2.1619723 
0.12677935 -0.82762504 2.133639 
0.12433517 -0.8258308 2.0925047 
0.2154984 1.6797984 4.0901065 
0.2154984 1.6521177 4.0901065 
0.2239371 1.6880482 4.250271 
0.22689882 1.6812288 4.3064837 
0.22689882 1.6520838 4.3064837 
0.23627341 1.6899922 4.4844112 
0.23957282 1.6828189 4.5470333 
0.23957282 1.6520458 4.5470333 
0.14712179 0.99562436 2.7923353 
0.14712179 0.9767266 2.7923353 
0.14587086 0.94968474 2.768593 
0.14464103 0.9230989 2.7452512 
0.14464103 0.9045198 2.7452512 
0.14464103 0.8859407 2.7452512 
0.14343177 0.86011004 2.7222996 
0.14343177 0.84168625 2.7222996 
0.14343177 0.82326245 2.7222996 
0.14224255 0.7981657 2.6997287 
0.14224255 0.77989465 2.6997287 
0.1410729 0.75536084 2.6775289 
0.1410729 0.73724 2.6775289 
0.1410729 0.71911925 2.6775289 
0.13992234 0.69528127 2.6556914 
0.13992234 0.67730826 2.6556914 
0.13992234 0.65933526 2.6556914 
0.13879037 0.6361737 2.634207 
0.13879037 0.6183461 2.634207 
0.13879037 0.6005185 2.634207 
0.13767657 0.5780148 2.6130674 
0.13767657 0.5603303 2.6130674 
0.13767657 0.54264575 2.6130674 
0.13658053 0.520782 2.5922647 
0.13658053 0.50323826 2.5922647 
0.13767657 0.4895922 2.6130674 
0.13658053 0.4681508 2.5922647 
0.13443995 0.44354483 2.551637 
0.13443995 0.42627606 2.551637 
0.13443995 0.40900728 2.551637 
0.13339461 0.3886926 2.531797 
0.13339461 0.37155807 2.531797 
0.13339461 0.35442358 2.531797 
0.13236542 0.33468673 2.512263 
0.13236542 0.31768444 2.512263 
0.13236542 0.30068213 2.512263 
0.13135198 0.28150785 2.4930282 
0.13135198 0.2646357 2.4930282 
0.13035394 0.24588105 2.4740858 
0.13035394 0.22913712 2.4740858 
0.13035394 0.21239318 2.4740858 
0.12937097 0.19417389 2.455429 
0.13035394 0.17890531 2.4740858 
0.12937097 0.16093855 2.455429 
0.12937097 0.14432088 2.455429 
0.1284027 0.12674741 2.4370515 
0.12744881 0.10943506 2.418947 
0.12744881 0.093064286 2.418947 
0.12744881 0.07669352 2.418947 
0.126509 0.05987793 2.4011097 
0.126509 0.043627877 2.4011097 
0.126509 0.027377825 2.4011097 
0.126509 0.011127775 2.4011097 
0.12558293 -0.0050847814 2.3835332 
0.12467034 -0.021061707 2.3662124 
0.12377092 -0.036808107 2.3491416 
0.12377092 -0.05270645 2.3491416 
0.12467034 -0.06910334 2.3662124 
0.12467034 -0.08511721 2.3662124 
0.12377092 -0.10040149 2.3491416 
0.12377092 -0.11629983 2.3491416 
0.12467034 -0.13315883 2.3662124 
0.0 -0.0 0.0 
0.0 -0.0 0.0 
0.0 -0.0 0.0 
0.13035394 -0.20620516 2.4740858 
0.13135198 -0.22465606 2.4930282 
0.0 -0.0 0.0 
0.0 -0.0 0.0 
0.0 -0.0 0.0 
0.0 -0.0 0.0 
0.49568453 -1.1661401 9.40797 
0.0 -0.0 0.0 
0.0 -0.0 0.0 
0.0 -0.0 0.0 
0.0 -0.0 0.0 
0.0 -0.0 0.0 
0.0 -0.0 0.0 
0.0 -0.0 0.0 
0.0 -0.0 0.0 
0.0 -0.0 0.0 
0.0 -0.0 0.0 
0.0 -0.0 0.0 
0.0 -0.0 0.0 
0.0 -0.0 0.0 
0.22105171 -0.91755956 4.195507 
0.21823971 -0.93392015 4.142136 
0.0 -0.0 0.0 
0.20276368 -0.91978294 3.8484046 
0.19361067 -0.903132 3.6746829 
0.0 -0.0 0.0 
0.18326938 -0.90197504 3.4784079 
0.17757842 -0.8967764 3.3703947 
0.16884024 -0.8743358 3.2045462 
0.1655811 -0.8787273 3.1426888 
0.16092171 -0.8746705 3.0542543 
0.126509 -0.70387447 2.4011097 
0.1284027 -0.730904 2.4370515 
0.14712179 -0.856356 2.7923353 
0.14464103 -0.8604953 2.7452512 
0.1410729 -0.8573887 2.6775289 
0.13767657 -0.85443157 2.6130674 
0.13443995 -0.8516135 2.551637 
0.13035394 -0.84247464 2.4740858 
0.12744881 -0.8400696 2.418947 
0.12467034 -0.8377694 2.3662124 
0.12201045 -0.8355674 2.3157282 
0.12029935 -0.8393017 2.283252 
0.11782083 -0.83714366 2.2362103 
0.11467076 -0.8294912 2.1764228 
0.11315807 -0.8330839 2.1477122 
0.11024931 -0.8258308 2.0925047 
0.18796553 1.6797984 4.0901065 
0.19035661 1.673134 4.142136 
0.19532606 1.6880482 4.250271 
0.19790938 1.6812288 4.3064837 
0.20056194 1.6742264 4.364203 
0.20608625 1.6899922 4.4844112 
0.20608625 1.6596429 4.4844112 
0.20896412 1.6520458 4.5470333 
0.12723386 0.9871589 2.768593 
0.12723386 0.9684218 2.768593 
0.12723386 0.94968474 2.768593 
0.12616116 0.9230989 2.7452512 
0.12616116 0.9045198 2.7452512 
0.12616116 0.8859407 2.7452512 
0.1251064 0.86011004 2.7222996 
0.124069124 0.83470774 2.6997287 
0.124069124 0.8164367 2.6997287 
0.124069124 0.7981657 2.6997287 
0.1230489 0.7734816 2.6775289 
0.1230489 0.75536084 2.6775289 
0.1230489 0.73724 2.6775289 
0.12204534 0.7132543 2.6556914 
0.12204534 0.69528127 2.6556914 
0.12204534 0.67730826 2.6556914 
0.121058 0.6540013 2.634207 
0.121058 0.6361737 2.634207 
0.121058 0.6183461 2.634207 
0.120086506 0.5956993 2.6130674 
0.120086506 0.5780148 2.6130674 
0.120086506 0.5603303 2.6130674 
0.120086506 0.54264575 2.6130674 
0.120086506 0.52496123 2.6130674 
0.118189566 0.49926355 2.5717902 
0.118189566 0.48185837 2.5717902 
0.118189566 0.46445322 2.5717902 
0.1172634 0.44354483 2.551637 
0.1172634 0.42627606 2.551637 
0.11635163 0.4058271 2.531797 
0.11635163 0.3886926 2.531797 
0.11635163 0.37155807 2.531797 
0.11635163 0.35442358 2.531797 
0.11635163 0.33728907 2.531797 
0.11635163 0.32015455 2.531797 
0.11545392 0.30068213 2.512263 
0.11456996 0.28150785 2.4930282 
0.11369944 0.26262498 2.4740858 
0.11369944 0.24588105 2.4740858 
0.11369944 0.22913712 2.4740858 
0.11284205 0.21079156 2.455429 
0.11199749 0.1927206 2.4370515 
0.11284205 0.17755622 2.455429 
0.11284205 0.16093855 2.455429 
0.11284205 0.14432088 2.455429 
0.11199749 0.12674741 2.4370515 
0.11199749 0.110254124 2.4370515 
0.11116548 0.093064286 2.418947 
0.11034574 0.07612798 2.4011097 
0.11034574 0.05987793 2.4011097 
0.109538 0.043308515 2.3835332 
0.11034574 0.027377825 2.4011097 
0.109538 0.011046317 2.3835332 
0.109538 -0.0050847814 2.3835332 
0.108742 -0.021061707 2.3662124 
0.10795749 -0.036808107 2.3491416 
0.10795749 -0.05270645 2.3491416 
0.108742 -0.06910334 2.3662124 
0.10795749 -0.084503144 2.3491416 
0.10718422 -0.09968233 2.3323152 
0.10718422 -0.1154668 2.3323152 
0.108742 -0.13315883 2.3662124 
0.11116548 -0.15249725 2.418947 
0.11034574 -0.16762279 2.4011097 
0.11284205 -0.18803252 2.455429 
0.11369944 -0.20620516 2.4740858 
0.11369944 -0.2229491 2.4740858 
0.0 -0.0 0.0 
0.0 -0.0 0.0 
0.0 -0.0 0.0 
0.0 -0.0 0.0 
0.0 -0.0 0.0 
0.0 -0.0 0.0 
0.0 -0.0 0.0 
0.0 -0.0 0.0 
0.0 -0.0 0.0 
0.0 -0.0 0.0 
0.0 -0.0 0.0 
0.0 -0.0 0.0 
0.0 -0.0 0.0 
0.0 -0.0 0.0 
0.0 -0.0 0.0 
0.0 -0.0 0.0 
0.0 -0.0 0.0 
0.0 -0.0 0.0 
0.19790938 -0.9418302 4.3064837 
0.19035661 -0.93392015 4.142136 
0.18563375 -0.93808633 4.039367 
0.17685784 -0.91978294 3.8484046 
0.16887426 -0.903132 3.6746829 
0.16334407 -0.8976117 3.5543468 
0.0 -0.0 0.0 
0.0 -0.0 0.0 
0.14873233 -0.8830261 3.2363973 
0.14583337 -0.8872911 3.1733162 
0.13777708 -0.858564 2.998012 
0.11034574 -0.70387447 2.4011097 
0.11199749 -0.730904 2.4370515 
0.12832497 -0.856356 2.7923353 
0.12616116 -0.8604953 2.7452512 
0.124069124 -0.8644974 2.6997287 
0.120086506 -0.85443157 2.6130674 
0.118189566 -0.8583397 2.5717902 
0.11369944 -0.84247464 2.4740858 
0.11116548 -0.8400696 2.418947 
0.108742 -0.8377694 2.3662124 
0.10642194 -0.8355674 2.3157282 
0.10492946 -0.8393017 2.283252 
0.10276761 -0.83714366 2.2362103 
0.10002001 -0.8294912 2.1764228 
0.09805383 -0.82762504 2.133639 
0.09616345 -0.8258308 2.0925047 
0.16043265 1.6797984 4.0901065 
0.1624735 1.673134 4.142136 
0.16456695 1.6662982 4.195507 
0.16671504 1.6592836 4.250271 
0.17118397 1.6742264 4.364203 
0.1735095 1.6670337 4.4234905 
0.17589909 1.6596429 4.4844112 
0.18088132 1.6754423 4.611429 
0.10768129 0.97883624 2.7452512 
0.10768129 0.9602571 2.7452512 
0.10768129 0.941678 2.7452512 
0.10768129 0.9230989 2.7452512 
0.10768129 0.9045198 2.7452512 
0.10859686 0.8934735 2.768593 
0.10678102 0.86011004 2.7222996 
0.10589569 0.83470774 2.6997287 
0.10589569 0.8164367 2.6997287 
0.10589569 0.7981657 2.6997287 
0.10589569 0.77989465 2.6997287 
0.10502491 0.75536084 2.6775289 
0.10502491 0.73724 2.6775289 
0.10416835 0.7132543 2.6556914 
0.10416835 0.69528127 2.6556914 
0.10416835 0.67730826 2.6556914 
0.10332563 0.6540013 2.634207 
0.10332563 0.6361737 2.634207 
0.10332563 0.6183461 2.634207 
0.10332563 0.6005185 2.634207 
0.10249644 0.5780148 2.6130674 
0.10249644 0.5603303 2.6130674 
0.10249644 0.54264575 2.6130674 
0.10168046 0.520782 2.5922647 
0.10087736 0.49926355 2.5717902 
0.10087736 0.48185837 2.5717902 
0.10087736 0.46445322 2.5717902 
0.10087736 0.44704804 2.5717902 
0.10008685 0.42627606 2.551637 
0.10008685 0.40900728 2.551637 
0.10008685 0.3917385 2.551637 
0.09930864 0.37155807 2.531797 
0.09930864 0.35442358 2.531797 
0.09930864 0.33728907 2.531797 
0.09854243 0.31768444 2.512263 
0.09854243 0.30068213 2.512263 
0.097787954 0.28150785 2.4930282 
0.097787954 0.2646357 2.4930282 
0.097044945 0.24588105 2.4740858 
0.097044945 0.22913712 2.4740858 
0.097044945 0.21239318 2.4740858 
0.09631314 0.19417389 2.455429 
0.09559229 0.1762273 2.4370515 
0.09559229 0.15973401 2.4370515 
0.09559229 0.1432407 2.4370515 
0.09559229 0.12674741 2.4370515 
0.094882146 0.10943506 2.418947 
0.09418249 0.092378035 2.4011097 
0.09418249 0.07612798 2.4011097 
0.09418249 0.05987793 2.4011097 
0.09349306 0.043308515 2.3835332 
0.09349306 0.027177416 2.3835332 
0.09349306 0.011046317 2.3835332 
0.09349306 -0.0050847814 2.3835332 
0.092813656 -0.021061707 2.3662124 
0.092813656 -0.037075583 2.3662124 
0.092144065 -0.05270645 2.3491416 
0.092144065 -0.0686048 2.3491416 
0.092144065 -0.084503144 2.3491416 
0.091484055 -0.09968233 2.3323152 
0.091484055 -0.1154668 2.3323152 
0.092144065 -0.13219818 2.3491416 
0.0 -0.0 0.0 
0.0 -0.0 0.0 
0.097044945 -0.18946123 2.4740858 
0.097044945 -0.20620516 2.4740858 
0.09631314 -0.22126786 2.455429 
0.0 -0.0 0.0 
0.0 -0.0 0.0 
0.0 -0.0 0.0 
0.0 -0.0 0.0 
0.0 -0.0 0.0 
0.0 -0.0 0.0 
0.0 -0.0 0.0 
0.0 -0.0 0.0 
0.0 -0.0 0.0 
0.0 -0.0 0.0 
0.0 -0.0 0.0 
0.0 -0.0 0.0 
0.0 -0.0 0.0 
0.0 -0.0 0.0 
0.0 -0.0 0.0 
0.0 -0.0 0.0 
0.0 -0.0 0.0 
0.17835541 -0.9636654 4.5470333 
0.17118397 -0.9544534 4.364203 
0.1624735 -0.93392015 4.142136 
0.156501 -0.9265917 3.9898717 
0.15095201 -0.91978294 3.8484046 
0.14578305 -0.91344047 3.7166262 
0.14095637 -0.90751797 3.5935736 
0.0 -0.0 0.0 
0.0 -0.0 0.0 
0.12694629 -0.8830261 3.2363973 
0.12327061 -0.8787273 3.1426888 
0.119801804 -0.8746705 3.0542543 
0.09559229 -0.71441066 2.4370515 
0.09418249 -0.72012454 2.4011097 
0.10952814 -0.856356 2.7923353 
0.10768129 -0.8604953 2.7452512 
0.10416835 -0.8503959 2.6556914 
0.10332563 -0.86134386 2.634207 
0.10008685 -0.8516135 2.551637 
0.097787954 -0.8489249 2.4930282 
0.09559229 -0.84635705 2.4370515 
0.092813656 -0.8377694 2.3662124 
0.091484055 -0.8415524 2.3323152 
0.08893594 -0.8334574 2.267353 
0.0871161 -0.83143365 2.2209575 
0.085369244 -0.8294912 2.1764228 
0.08314624 -0.8222372 2.119749 
0.08207759 -0.8258308 2.0925047 
0.13459039 1.7011669 4.142136 
0.13459039 1.673134 4.142136 
0.13632457 1.6662982 4.195507 
0.13993053 1.6812288 4.3064837 
0.141806 1.6742264 4.364203 
0.14571193 1.6899922 4.4844112 
0.14774671 1.6828189 4.5470333 
0.14983912 1.6754423 4.611429 
0.08995987 0.9871589 2.768593 
0.08995987 0.9684218 2.768593 
0.09073132 0.9578288 2.7923353 
0.09073132 0.93893105 2.7923353 
0.09073132 0.9200333 2.7923353 
0.08995987 0.8934735 2.768593 
0.08920142 0.8673616 2.7452512 
0.088455655 0.84168625 2.7222996 
0.088455655 0.82326245 2.7222996 
0.088455655 0.8048387 2.7222996 
0.088455655 0.7864149 2.7222996 
0.088455655 0.7679911 2.7222996 
0.08772226 0.74335265 2.6997287 
0.087000914 0.71911925 2.6775289 
0.087000914 0.7009985 2.6775289 
0.087000914 0.6828777 2.6775289 
0.08629135 0.65933526 2.6556914 
0.08629135 0.6413623 2.6556914 
0.08629135 0.6233893 2.6556914 
0.08629135 0.6054163 2.6556914 
0.08559326 0.58269095 2.634207 
0.08490637 0.5603303 2.6130674 
0.08490637 0.54264575 2.6130674 
0.08490637 0.52496123 2.6130674 
0.08423043 0.50323826 2.5922647 
0.08423043 0.48569453 2.5922647 
0.08423043 0.4681508 2.5922647 
0.08356515 0.44704804 2.5717902 
0.08356515 0.4296429 2.5717902 
0.082910314 0.40900728 2.551637 
0.082910314 0.3917385 2.551637 
0.082910314 0.37446973 2.551637 
0.08226565 0.35442358 2.531797 
0.08226565 0.33728907 2.531797 
0.08226565 0.32015455 2.531797 
0.08226565 0.30302006 2.531797 
0.08100594 0.28150785 2.4930282 
0.08100594 0.2646357 2.4930282 
0.08100594 0.24776359 2.4930282 
0.080390446 0.22913712 2.4740858 
0.080390446 0.21239318 2.4740858 
0.080390446 0.19564925 2.4740858 
0.080390446 0.17890531 2.4740858 
0.07918709 0.15973401 2.4370515 
0.07918709 0.1432407 2.4370515 
0.07859882 0.12580582 2.418947 
0.07859882 0.10943506 2.418947 
0.07859882 0.093064286 2.418947 
0.07859882 0.07669352 2.418947 
0.07859882 0.060322747 2.418947 
0.07801923 0.043627877 2.4011097 
0.07801923 0.027377825 2.4011097 
0.07801923 0.011127775 2.4011097 
0.07744812 -0.0050847814 2.3835332 
0.07688531 -0.021061707 2.3662124 
0.07744812 -0.037346978 2.3835332 
0.07688531 -0.05308946 2.3662124 
0.07688531 -0.06910334 2.3662124 
0.07633063 -0.084503144 2.3491416 
0.07633063 -0.10040149 2.3491416 
0.07633063 -0.11629983 2.3491416 
0.07633063 -0.13219818 2.3491416 
0.0 -0.0 0.0 
0.0 -0.0 0.0 
0.08100594 -0.1909118 2.4930282 
0.08100594 -0.20778394 2.4930282 
0.080390446 -0.2229491 2.4740858 
0.0 -0.0 0.0 
0.0 -0.0 0.0 
0.0 -0.0 0.0 
0.0 -0.0 0.0 
0.0 -0.0 0.0 
0.0 -0.0 0.0 
0.0 -0.0 0.0 
0.0 -0.0 0.0 
0.0 -0.0 0.0 
0.0 -0.0 0.0 
0.0 -0.0 0.0 
0.0 -0.0 0.0 
0.0 -0.0 0.0 
0.0 -0.0 0.0 
0.0 -0.0 0.0 
0.0 -0.0 0.0 
0.0 -0.0 0.0 
0.14983912 -0.97731304 4.611429 
0.14373243 -0.9674196 4.4234905 
0.138104 -0.95830107 4.250271 
0.13125111 -0.93808633 4.039367 
0.12807353 -0.9420508 3.9415743 
0.12076429 -0.91344047 3.7166262 
0.118068986 -0.91764534 3.6336756 
0.11302387 -0.90197504 3.4784079 
0.11065962 -0.9061559 3.405646 
0.10621594 -0.89189094 3.2688878 
0.102115355 -0.8787273 3.1426888 
0.10113921 -0.89139295 3.112647 
0.10113921 -0.9124585 3.112647 
0.07918709 -0.730904 2.4370515 
0.09151612 -0.8637633 2.8164883 
0.08995987 -0.8678118 2.768593 
0.087000914 -0.8573887 2.6775289 
0.08559326 -0.86134386 2.634207 
0.08356515 -0.8583397 2.5717902 
0.08163094 -0.85547477 2.512263 
0.080390446 -0.8592186 2.4740858 
0.07744812 -0.84390193 2.3835332 
0.07633063 -0.8476237 2.3491416 
0.07471358 -0.84522843 2.2993753 
0.07266116 -0.83714366 2.2362103 
0.071676664 -0.84073013 2.2059116 
0.069328316 -0.82762504 2.133639 
0.06799173 -0.8258308 2.0925047 
0.106707275 1.7011669 4.142136 
0.10949298 1.716813 4.250271 
0.10808218 1.6662982 4.195507 
0.1109411 1.6812288 4.3064837 
0.11242803 1.6742264 4.364203 
0.11552476 1.6899922 4.4844112 
0.117138 1.6828189 4.5470333 
0.11879693 1.6754423 4.611429 
0.07255671 1.0042362 2.8164883 
0.0719345 0.9767266 2.7923353 
0.0719345 0.9578288 2.7923353 
0.0719345 0.93893105 2.7923353 
0.0719345 0.9200333 2.7923353 
0.071322866 0.8934735 2.768593 
0.07013028 0.86011004 2.7222996 
0.07013028 0.84168625 2.7222996 
0.07013028 0.82326245 2.7222996 
0.07013028 0.8048387 2.7222996 
0.07013028 0.7864149 2.7222996 
0.06954882 0.7616237 2.6997287 
0.06954882 0.74335265 2.6997287 
0.068976924 0.71911925 2.6775289 
0.068976924 0.7009985 2.6775289 
0.06841436 0.67730826 2.6556914 
0.06841436 0.65933526 2.6556914 
0.06841436 0.6413623 2.6556914 
0.06841436 0.6233893 2.6556914 
0.067860894 0.6005185 2.634207 
0.0673163 0.5780148 2.6130674 
0.0673163 0.5603303 2.6130674 
0.0673163 0.54264575 2.6130674 
0.0673163 0.52496123 2.6130674 
0.066780396 0.50323826 2.5922647 
0.066780396 0.48569453 2.5922647 
0.06625295 0.46445322 2.5717902 
0.06625295 0.44704804 2.5717902 
0.06573377 0.42627606 2.551637 
0.06573377 0.40900728 2.551637 
0.06625295 0.39483252 2.5717902 
0.06573377 0.37446973 2.551637 
0.064719446 0.35168904 2.512263 
0.064719446 0.33468673 2.512263 
0.065222666 0.32015455 2.531797 
0.064719446 0.30068213 2.512263 
0.06422392 0.28150785 2.4930282 
0.06422392 0.2646357 2.4930282 
0.06422392 0.24776359 2.4930282 
0.06373594 0.22913712 2.4740858 
0.06373594 0.21239318 2.4740858 
0.06373594 0.19564925 2.4740858 
0.06373594 0.17890531 2.4740858 
0.062781885 0.15973401 2.4370515 
0.06231549 0.1421766 2.418947 
0.06231549 0.12580582 2.418947 
0.06231549 0.10943506 2.418947 
0.062781885 0.093760826 2.4370515 
0.06231549 0.07669352 2.418947 
0.061855976 0.05987793 2.4011097 
0.061855976 0.043627877 2.4011097 
0.061855976 0.027377825 2.4011097 
0.061855976 0.011127775 2.4011097 
0.06140318 -0.0050847814 2.3835332 
0.06095697 -0.021061707 2.3662124 
0.06095697 -0.037075583 2.3662124 
0.06095697 -0.05308946 2.3662124 
0.060517203 -0.0686048 2.3491416 
0.060517203 -0.084503144 2.3491416 
0.060517203 -0.10040149 2.3491416 
0.060517203 -0.11629983 2.3491416 
0.060517203 -0.13219818 2.3491416 
0.06231549 -0.15249725 2.418947 
0.062781885 -0.1701319 2.4370515 
0.06373594 -0.18946123 2.4740858 
0.06422392 -0.20778394 2.4930282 
0.06422392 -0.22465606 2.4930282 
0.06325532 -0.23788553 2.455429 
0.0 -0.0 0.0 
0.0 -0.0 0.0 
0.0 -0.0 0.0 
0.0 -0.0 0.0 
0.0 -0.0 0.0 
0.0 -0.0 0.0 
0.0 -0.0 0.0 
0.0 -0.0 0.0 
0.0 -0.0 0.0 
0.0 -0.0 0.0 
0.0 -0.0 0.0 
0.0 -0.0 0.0 
0.0 -0.0 0.0 
0.0 -0.0 0.0 
0.0 -0.0 0.0 
0.0 -0.0 0.0 
0.0 -0.0 0.0 
0.11242803 -0.9544534 4.364203 
0.1109411 -0.9709753 4.3064837 
0.10278473 -0.9265917 3.9898717 
0.10154052 -0.9420508 3.9415743 
0.096851006 -0.923987 3.759538 
0.09257553 -0.90751797 3.5935736 
0.09057628 -0.9117145 3.5159674 
0.08682612 -0.8967764 3.3703947 
0.08421116 -0.89189094 3.2688878 
0.081749104 -0.8872911 3.1733162 
0.08018618 -0.89139295 3.112647 
0.07942692 -0.9038186 3.0831742 
0.062781885 -0.730904 2.4370515 
0.07318978 -0.87129974 2.8410625 
0.071322866 -0.8678118 2.768593 
0.068976924 -0.8573887 2.6775289 
0.067860894 -0.86134386 2.634207 
0.06625295 -0.8583397 2.5717902 
0.06422392 -0.8489249 2.4930282 
0.06325532 -0.85273933 2.455429 
0.061855976 -0.85012496 2.4011097 
0.060517203 -0.8476237 2.3491416 
0.059656426 -0.8512396 2.3157282 
0.057607934 -0.83714366 2.2362103 
0.056827396 -0.84073013 2.2059116 
0.055328097 -0.8330839 2.1477122 
0.05425453 -0.83117217 2.1060388 
0.07783405 1.6797984 4.0901065 
0.07882416 1.673134 4.142136 
0.0798398 1.6662982 4.195507 
0.08195167 1.6812288 4.3064837 
0.08305006 1.6742264 4.364203 
0.0853376 1.6899922 4.4844112 
0.08652929 1.6828189 4.5470333 
0.054064948 1.0322258 2.8410625 
0.053137675 0.99562436 2.7923353 
0.053137675 0.9767266 2.7923353 
0.053137675 0.9578288 2.7923353 
0.052685868 0.93094766 2.768593 
0.052685868 0.9122106 2.768593 
0.052241676 0.8859407 2.7452512 
0.051804908 0.86011004 2.7222996 
0.051804908 0.84168625 2.7222996 
0.051804908 0.82326245 2.7222996 
0.051804908 0.8048387 2.7222996 
0.05137539 0.77989465 2.6997287 
0.05137539 0.7616237 2.6997287 
0.05095293 0.73724 2.6775289 
0.05095293 0.71911925 2.6775289 
0.05095293 0.7009985 2.6775289 
0.050537366 0.67730826 2.6556914 
0.050537366 0.65933526 2.6556914 
0.050537366 0.6413623 2.6556914 
0.050128523 0.6183461 2.634207 
0.04972624 0.5956993 2.6130674 
0.04972624 0.5780148 2.6130674 
0.050128523 0.5648633 2.634207 
0.050128523 0.54703575 2.634207 
0.049330365 0.520782 2.5922647 
0.049330365 0.50323826 2.5922647 
0.04894074 0.48185837 2.5717902 
0.04894074 0.46445322 2.5717902 
0.048557226 0.44354483 2.551637 
0.048557226 0.42627606 2.551637 
0.04894074 0.4122377 2.5717902 
0.048557226 0.3917385 2.551637 
0.048179675 0.37155807 2.531797 
0.048179675 0.35442358 2.531797 
0.04780795 0.33468673 2.512263 
0.04780795 0.31768444 2.512263 
0.04744191 0.29838 2.4930282 
0.04744191 0.28150785 2.4930282 
0.04744191 0.2646357 2.4930282 
0.04744191 0.24776359 2.4930282 
0.04708144 0.22913712 2.4740858 
0.04708144 0.21239318 2.4740858 
0.04708144 0.19564925 2.4740858 
0.04672641 0.17755622 2.455429 
0.046376687 0.15973401 2.4370515 
0.046376687 0.1432407 2.4370515 
0.046376687 0.12674741 2.4370515 
0.046376687 0.110254124 2.4370515 
0.046376687 0.093760826 2.4370515 
0.04569272 0.07612798 2.4011097 
0.04569272 0.05987793 2.4011097 
0.04569272 0.043627877 2.4011097 
0.04569272 0.027377825 2.4011097 
0.04569272 0.011127775 2.4011097 
0.04535824 -0.0050847814 2.3835332 
0.045028627 -0.021061707 2.3662124 
0.044703774 -0.036808107 2.3491416 
0.044703774 -0.05270645 2.3491416 
0.044703774 -0.0686048 2.3491416 
0.044703774 -0.084503144 2.3491416 
0.044703774 -0.10040149 2.3491416 
0.044703774 -0.11629983 2.3491416 
0.045028627 -0.13315883 2.3662124 
0.09302445 -0.30817524 4.8883476 
0.09302445 -0.34125826 4.8883476 
0.04708144 -0.18946123 2.4740858 
0.04744191 -0.20778394 2.4930282 
0.04744191 -0.22465606 2.4930282 
0.04708144 -0.23969303 2.4740858 
0.0 -0.0 0.0 
0.0 -0.0 0.0 
0.19001208 -1.1700835 9.984958 
0.18435876 -1.2008356 9.6878805 
0.0 -0.0 0.0 
0.0 -0.0 0.0 
0.0 -0.0 0.0 
0.0 -0.0 0.0 
0.0 -0.0 0.0 
0.0 -0.0 0.0 
0.0 -0.0 0.0 
0.0 -0.0 0.0 
0.0 -0.0 0.0 
0.0 -0.0 0.0 
0.0 -0.0 0.0 
0.0 -0.0 0.0 
0.087754734 -0.97731304 4.611429 
0.08195167 -0.9418302 4.3064837 
0.080881946 -0.95830107 4.250271 
0.075926594 -0.9265917 3.9898717 
0.0741104 -0.9307837 3.8944323 
0.07072678 -0.91344047 3.7166262 
0.06838511 -0.90751797 3.5935736 
0.06690828 -0.9117145 3.5159674 
0.06480888 -0.9061559 3.405646 
0.06283722 -0.9009355 3.3020372 
0.060387682 -0.8872911 3.1733162 
0.058672294 -0.8829526 3.0831742 
0.04672641 -0.71979797 2.455429 
0.04672641 -0.7364156 2.455429 
0.046376687 -0.74739724 2.4370515 
0.052685868 -0.8678118 2.768593 
0.051804908 -0.87172496 2.7222996 
0.050128523 -0.86134386 2.634207 
0.048557226 -0.8516135 2.551637 
0.04744191 -0.8489249 2.4930282 
0.046376687 -0.84635705 2.4370515 
0.04569272 -0.85012496 2.4011097 
0.044703774 -0.8476237 2.3491416 
0.04375673 -0.84522843 2.2993753 
0.04255471 -0.83714366 2.2362103 
0.041978132 -0.84073013 2.2059116 
0.040870607 -0.8330839 2.1477122 
0.04033847 -0.8365831 2.119749 
0.05030118 1.6797984 4.0901065 
0.05094105 1.673134 4.142136 
0.05227092 1.6880482 4.250271 
0.05296224 1.6812288 4.3064837 
0.053672086 1.6742264 4.364203 
0.055150438 1.6899922 4.4844112 
0.055920582 1.6828189 4.5470333 
0.056712538 1.6754423 4.611429 
0.034340855 0.99562436 2.7923353 
0.034048866 0.9684218 2.768593 
0.034048866 0.94968474 2.768593 
0.034048866 0.93094766 2.768593 
0.033761803 0.9045198 2.7452512 
0.033479538 0.8785338 2.7222996 
0.033761803 0.8673616 2.7452512 
0.033479538 0.84168625 2.7222996 
0.033479538 0.82326245 2.7222996 
0.033479538 0.8048387 2.7222996 
0.033479538 0.7864149 2.7222996 
0.032928936 0.75536084 2.6775289 
0.032928936 0.73724 2.6775289 
0.032660373 0.7132543 2.6556914 
0.032660373 0.69528127 2.6556914 
0.032660373 0.67730826 2.6556914 
0.032660373 0.65933526 2.6556914 
0.032660373 0.6413623 2.6556914 
0.032660373 0.6233893 2.6556914 
0.032396153 0.6005185 2.634207 
0.032396153 0.58269095 2.634207 
0.032396153 0.5648633 2.634207 
0.032136172 0.54264575 2.6130674 
0.031880334 0.520782 2.5922647 
0.031880334 0.50323826 2.5922647 
0.031628534 0.48185837 2.5717902 
0.031628534 0.46445322 2.5717902 
0.031380687 0.44354483 2.551637 
0.031380687 0.42627606 2.551637 
0.031628534 0.4122377 2.5717902 
0.031136688 0.3886926 2.531797 
0.031136688 0.37155807 2.531797 
0.031136688 0.35442358 2.531797 
0.030896455 0.33468673 2.512263 
0.030896455 0.31768444 2.512263 
0.0306599 0.29838 2.4930282 
0.0306599 0.28150785 2.4930282 
0.0306599 0.2646357 2.4930282 
0.0306599 0.24776359 2.4930282 
0.0306599 0.23089147 2.4930282 
0.030426942 0.21239318 2.4740858 
0.030426942 0.19564925 2.4740858 
0.030197496 0.17755622 2.455429 
0.029971484 0.15973401 2.4370515 
0.029971484 0.1432407 2.4370515 
0.029971484 0.12674741 2.4370515 
0.029748831 0.10943506 2.418947 
0.029748831 0.093064286 2.418947 
0.029529462 0.07612798 2.4011097 
0.029529462 0.05987793 2.4011097 
0.029529462 0.043627877 2.4011097 
0.029313304 0.027177416 2.3835332 
0.029313304 0.011046317 2.3835332 
0.029313304 -0.0050847814 2.3835332 
0.029100286 -0.021061707 2.3662124 
0.029100286 -0.037075583 2.3662124 
0.028890345 -0.05270645 2.3491416 
0.028890345 -0.0686048 2.3491416 
0.028890345 -0.084503144 2.3491416 
0.028890345 -0.10040149 2.3491416 
0.028890345 -0.11629983 2.3491416 
0.029529462 -0.13512269 2.4011097 
0.030426942 -0.15597336 2.4740858 
0.060118154 -0.34125826 4.8883476 
0.030197496 -0.18803252 2.455429 
0.0306599 -0.20778394 2.4930282 
0.0306599 -0.22465606 2.4930282 
0.0 -0.0 0.0 
0.0 -0.0 0.0 
0.11570163 -1.0387989 9.40797 
0.11914404 -1.1352707 9.6878805 
0.11914404 -1.2008356 9.6878805 
0.11570163 -1.2298107 9.40797 
0.0 -0.0 0.0 
0.0 -0.0 0.0 
0.0 -0.0 0.0 
0.0 -0.0 0.0 
0.0 -0.0 0.0 
0.0 -0.0 0.0 
0.0 -0.0 0.0 
0.0 -0.0 0.0 
0.0 -0.0 0.0 
0.0 -0.0 0.0 
0.0 -0.0 0.0 
0.055920582 -0.9636654 4.5470333 
0.0 -0.0 0.0 
0.05159742 -0.9459536 4.195507 
0.05030118 -0.9498698 4.0901065 
0.047894727 -0.9307837 3.8944323 
0.045708023 -0.91344047 3.7166262 
0.044687875 -0.91764534 3.6336756 
0.043240268 -0.9117145 3.5159674 
0.04188351 -0.9061559 3.405646 
0.0406093 -0.9009355 3.3020372 
0.039026257 -0.8872911 3.1733162 
0.037917666 -0.8829526 3.0831742 
0.030197496 -0.71979797 2.455429 
0.029971484 -0.730904 2.4370515 
0.034340855 -0.856356 2.7923353 
0.034048866 -0.8678118 2.768593 
0.033479538 -0.87172496 2.7222996 
0.032136172 -0.85443157 2.6130674 
0.031380687 -0.8516135 2.551637 
0.030896455 -0.85547477 2.512263 
0.030197496 -0.85273933 2.455429 
0.029748831 -0.8564403 2.418947 
0.029100286 -0.85378325 2.3662124 
0.028278306 -0.84522843 2.2993753 
0.027691664 -0.8429326 2.251674 
0.027128866 -0.84073013 2.2059116 
0.02658849 -0.8386153 2.1619723 
0.026069218 -0.8365831 2.119749 
0.02276831 1.6797984 4.0901065 
0.023057941 1.673134 4.142136 
0.023659892 1.6880482 4.250271 
0.023972811 1.6812288 4.3064837 
0.024294116 1.6742264 4.364203 
0.024963276 1.6899922 4.4844112 
0.025311872 1.6828189 4.5470333 
0.025670344 1.6754423 4.611429 
0.015411868 0.9871589 2.768593 
0.015411868 0.9684218 2.768593 
0.015411868 0.94968474 2.768593 
0.0152819315 0.9230989 2.7452512 
0.0152819315 0.9045198 2.7452512 
0.0152819315 0.8859407 2.7452512 
0.0152819315 0.8673616 2.7452512 
0.015154167 0.84168625 2.7222996 
0.015154167 0.82326245 2.7222996 
0.015154167 0.8048387 2.7222996 
0.015028522 0.77989465 2.6997287 
0.014904942 0.75536084 2.6775289 
0.014904942 0.73724 2.6775289 
0.014783381 0.7132543 2.6556914 
0.014904942 0.7009985 2.6775289 
0.014783381 0.67730826 2.6556914 
0.014783381 0.65933526 2.6556914 
0.014663784 0.6361737 2.634207 
0.014783381 0.6233893 2.6556914 
0.014663784 0.6005185 2.634207 
0.014663784 0.58269095 2.634207 
0.014546107 0.5603303 2.6130674 
0.014430304 0.5383257 2.5922647 
0.014430304 0.520782 2.5922647 
0.01431633 0.49926355 2.5717902 
0.01431633 0.48185837 2.5717902 
0.01431633 0.46445322 2.5717902 
0.014204143 0.44354483 2.551637 
0.014204143 0.42627606 2.551637 
0.014204143 0.40900728 2.551637 
0.0140937 0.3886926 2.531797 
0.013984961 0.36869135 2.512263 
0.013984961 0.35168904 2.512263 
0.013984961 0.33468673 2.512263 
0.013877886 0.31525213 2.4930282 
0.013877886 0.29838 2.4930282 
0.013877886 0.28150785 2.4930282 
0.013877886 0.2646357 2.4930282 
0.013772441 0.24588105 2.4740858 
0.013772441 0.22913712 2.4740858 
0.013772441 0.21239318 2.4740858 
0.013772441 0.19564925 2.4740858 
0.013668585 0.17755622 2.455429 
0.013566283 0.15973401 2.4370515 
0.0134655 0.1421766 2.418947 
0.0134655 0.12580582 2.418947 
0.0134655 0.10943506 2.418947 
0.0134655 0.093064286 2.418947 
0.013366207 0.07612798 2.4011097 
0.013366207 0.05987793 2.4011097 
0.013366207 0.043627877 2.4011097 
0.013268364 0.027177416 2.3835332 
0.013268364 0.011046317 2.3835332 
0.013268364 -0.0050847814 2.3835332 
0.013171944 -0.021061707 2.3662124 
0.013171944 -0.037075583 2.3662124 
0.013076916 -0.05270645 2.3491416 
0.013076916 -0.0686048 2.3491416 
0.013076916 -0.084503144 2.3491416 
0.013076916 -0.10040149 2.3491416 
0.013076916 -0.11629983 2.3491416 
0.013171944 -0.13315883 2.3662124 
0.027626608 -0.31287226 4.962853 
0.02721186 -0.34125826 4.8883476 
0.0 -0.0 0.0 
0.013877886 -0.20778394 2.4930282 
0.013984961 -0.2263894 2.512263 
0.0 -0.0 0.0 
0.0 -0.0 0.0 
0.052371148 -1.0387989 9.40797 
0.052371148 -1.1024696 9.40797 
0.052371148 -1.1661401 9.40797 
0.0 -0.0 0.0 
0.0 -0.0 0.0 
0.0 -0.0 0.0 
0.0 -0.0 0.0 
0.0 -0.0 0.0 
0.0 -0.0 0.0 
0.0 -0.0 0.0 
0.0 -0.0 0.0 
0.0 -0.0 0.0 
0.0 -0.0 0.0 
0.0 -0.0 0.0 
0.026418636 -0.9736831 4.7458525 
0.024963276 -0.9503938 4.4844112 
0.0 -0.0 0.0 
0.0 -0.0 0.0 
0.02248586 -0.93808633 4.039367 
0.021941477 -0.9420508 3.9415743 
0.020928139 -0.923987 3.759538 
0.02045578 -0.9280013 3.6746829 
0.019363178 -0.90197504 3.4784079 
0.018958138 -0.9061559 3.405646 
0.01838138 -0.9009355 3.3020372 
0.017664831 -0.8872911 3.1733162 
0.01716304 -0.8829526 3.0831742 
0.0134655 -0.7091034 2.418947 
0.0134655 -0.7254742 2.418947 
0.015544034 -0.856356 2.7923353 
0.0152819315 -0.8604953 2.7452512 
0.015028522 -0.8644974 2.6997287 
0.014663784 -0.86134386 2.634207 
0.014204143 -0.8516135 2.551637 
0.013877886 -0.8489249 2.4930282 
0.013668585 -0.85273933 2.455429 
0.0134655 -0.8564403 2.418947 
0.013076916 -0.8476237 2.3491416 
0.012799883 -0.84522843 2.2993753 
0.012448264 -0.83714366 2.2362103 
0.012279601 -0.84073013 2.2059116 
0.012035005 -0.8386153 2.1619723 
0.011723641 -0.83117217 2.1060388 
-0.004764561 1.6797984 4.0901065 
-0.00482517 1.673134 4.142136 
-0.004951136 1.6880482 4.250271 
-0.005016619 1.6812288 4.3064837 
-0.0050838557 1.6742264 4.364203 
-0.005223886 1.6899922 4.4844112 
-0.0052968347 1.6828189 4.5470333 
-0.0053718495 1.6754423 4.611429 
-0.0032527887 0.99562436 2.7923353 
-0.0032251314 0.9684218 2.768593 
-0.0031979405 0.941678 2.7452512 
-0.0031979405 0.9230989 2.7452512 
-0.0031979405 0.9045198 2.7452512 
-0.0031979405 0.8859407 2.7452512 
-0.0031979405 0.8673616 2.7452512 
-0.0031712041 0.84168625 2.7222996 
-0.0031712041 0.82326245 2.7222996 
-0.0031712041 0.8048387 2.7222996 
-0.0031449113 0.77989465 2.6997287 
-0.0031449113 0.7616237 2.6997287 
-0.0031190508 0.73724 2.6775289 
-0.0030936124 0.7132543 2.6556914 
-0.0030936124 0.69528127 2.6556914 
-0.0030936124 0.67730826 2.6556914 
-0.0030936124 0.65933526 2.6556914 
-0.0030685852 0.6361737 2.634207 
-0.0030936124 0.6233893 2.6556914 
-0.0030685852 0.6005185 2.634207 
-0.0030685852 0.58269095 2.634207 
-0.0030439596 0.5603303 2.6130674 
-0.0030197266 0.5383257 2.5922647 
-0.0030197266 0.520782 2.5922647 
-0.0030197266 0.50323826 2.5922647 
-0.002995876 0.48185837 2.5717902 
-0.002995876 0.46445322 2.5717902 
-0.0029723994 0.44354483 2.551637 
-0.0029723994 0.42627606 2.551637 
-0.0029723994 0.40900728 2.551637 
-0.0029723994 0.3917385 2.551637 
-0.0029492879 0.37155807 2.531797 
-0.0029265329 0.35168904 2.512263 
-0.0029265329 0.33468673 2.512263 
-0.0029041262 0.31525213 2.4930282 
-0.0029041262 0.29838 2.4930282 
-0.0029041262 0.28150785 2.4930282 
-0.0029041262 0.2646357 2.4930282 
-0.0028820601 0.24588105 2.4740858 
-0.0028820601 0.22913712 2.4740858 
-0.002860327 0.21079156 2.455429 
-0.002860327 0.19417389 2.455429 
-0.002860327 0.17755622 2.455429 
-0.002838919 0.15973401 2.4370515 
-0.002817829 0.1421766 2.418947 
-0.002817829 0.12580582 2.418947 
-0.002817829 0.10943506 2.418947 
-0.0027970504 0.092378035 2.4011097 
-0.0027970504 0.07612798 2.4011097 
-0.0027970504 0.05987793 2.4011097 
-0.0027765755 0.043308515 2.3835332 
-0.0027563984 0.026979921 2.3662124 
-0.0027563984 0.010966045 2.3662124 
-0.0027563984 -0.0050478308 2.3662124 
-0.0027563984 -0.021061707 2.3662124 
-0.0027563984 -0.037075583 2.3662124 
-0.0027563984 -0.05308946 2.3662124 
-0.0027365128 -0.0686048 2.3491416 
-0.0027365128 -0.084503144 2.3491416 
-0.0027169117 -0.09968233 2.3323152 
-0.0027169117 -0.1154668 2.3323152 
-0.0027365128 -0.13219818 2.3491416 
-0.0056944313 -0.30817524 4.8883476 
-0.0056944313 -0.34125826 4.8883476 
-0.0 -0.0 0.0 
-0.0029041262 -0.20778394 2.4930282 
-0.0029041262 -0.22465606 2.4930282 
-0.0 -0.0 0.0 
-0.0 -0.0 0.0 
-0.011631467 -1.1025081 9.984958 
-0.0 -0.0 0.0 
-0.0 -0.0 0.0 
-0.0 -0.0 0.0 
-0.0 -0.0 0.0 
-0.0 -0.0 0.0 
-0.0 -0.0 0.0 
-0.0 -0.0 0.0 
-0.0 -0.0 0.0 
-0.0 -0.0 0.0 
-0.0 -0.0 0.0 
-0.0 -0.0 0.0 
-0.0 -0.0 0.0 
-0.0 -0.0 0.0 
-0.0 -0.0 0.0 
-0.005223886 -0.9503938 4.4844112 
-0.0050838557 -0.9544534 4.364203 
-0.0 -0.0 0.0 
-0.004647798 -0.9265917 3.9898717 
-0.0045366203 -0.9307837 3.8944323 
-0.004379482 -0.923987 3.759538 
-0.004329494 -0.93859357 3.7166262 
-0.004009166 -0.8924416 3.4416425 
-0.003967234 -0.9061559 3.405646 
-0.0038079242 -0.89189094 3.2688878 
-0.003660915 -0.8787273 3.1426888 
-0.0035915866 -0.8829526 3.0831742 
-0.0035578979 -0.89534086 3.0542543 
-0.002817829 -0.7254742 2.418947 
-0.0027970504 -0.7363746 2.4011097 
-0.0032251314 -0.8678118 2.768593 
-0.0031449113 -0.8644974 2.6997287 
-0.0030685852 -0.86134386 2.634207 
-0.0029723994 -0.8516135 2.551637 
-0.0029041262 -0.8489249 2.4930282 
-0.002860327 -0.85273933 2.455429 
-0.0027970504 -0.85012496 2.4011097 
-0.0027365128 -0.8476237 2.3491416 
-0.00267854 -0.84522843 2.2993753 
-0.0025871913 -0.83143365 2.2209575 
-0.0025523729 -0.8350728 2.191068 
-0.002501868 -0.8330839 2.1477122 
-0.0024533225 -0.83117217 2.1060388 
-0.032297432 1.6797984 4.0901065 
-0.033129722 1.6946921 4.195507 
-0.033562165 1.6880482 4.250271 
-0.034006048 1.6812288 4.3064837 
-0.034461826 1.6742264 4.364203 
-0.034461826 1.6446906 4.364203 
-0.03541105 1.6596429 4.4844112 
-0.035905544 1.6520458 4.5470333 
-0.022240333 1.0042362 2.8164883 
-0.021677813 0.9602571 2.7452512 
-0.021677813 0.941678 2.7452512 
-0.021677813 0.9230989 2.7452512 
-0.021677813 0.9045198 2.7452512 
-0.021677813 0.8859407 2.7452512 
-0.021496575 0.86011004 2.7222996 
