ply
format ascii 1.0
comment this is my Proccessing file
element vertex 1608
property float x
property float y
property float z
end_header
-1.4389926 0.7631074 3.6746829 
-1.4554174 0.7466645 3.7166262 
-1.4554174 0.7215114 3.7166262 
-1.4894183 0.7126263 3.8034523 
-1.5070214 0.69500375 3.8484046 
-1.5250456 0.6769597 3.8944323 
-1.5624194 0.66654736 3.9898717 
-1.5818017 0.6474787 4.039367 
-1.6220456 0.6359189 4.142136 
-1.6220456 0.6078861 4.142136 
-1.6429455 0.5873246 4.195507 
-1.6429455 0.5589306 4.195507 
-1.6864035 0.5445699 4.3064837 
-1.7090062 0.52233297 4.364203 
-1.7560793 0.5063709 4.4844112 
-1.7560793 0.47602165 4.4844112 
-1.7806019 0.45189592 4.5470333 
-1.8317608 0.43322223 4.6776752 
-1.8859464 0.41344377 4.816046 
-1.8859464 0.3808501 4.816046 
-1.9434354 0.35887226 4.962853 
-1.9735146 0.33031958 5.0396647 
-2.0045395 0.30086917 5.1188917 
-2.0696106 0.2748681 5.2850604 
-2.1037567 0.24304512 5.372257 
-2.0696106 0.20333244 5.2850604 
-2.1390483 0.17318657 5.46238 
-2.252404 0.14343739 5.7518506 
-2.2929072 0.10638977 5.8552814 
-2.3348937 0.067985356 5.9625 
-2.3784463 0.028148223 6.0737185 
-2.4706151 -0.013459145 6.3090854 
-2.5702152 -0.058421224 6.5634294 
-2.6230888 -0.104956314 6.6984496 
-2.6230888 -0.15028958 6.6984496 
-2.6781833 -0.19973165 6.839142 
-2.7356422 -0.25129524 6.9858713 
-2.8582873 -0.31195945 7.299064 
-2.9238284 -0.3696435 7.466433 
-2.9924455 -0.43003502 7.6416574 
-3.139818 -0.5054771 8.017995 
-3.219085 -0.57387173 8.220415 
-3.3024578 -0.6458091 8.43332 
-3.4828677 -0.74128133 8.894024 
-3.5806715 -0.82398015 9.143781 
-3.9100735 -0.9673572 9.984958 
-3.9100735 -1.0349326 9.984958 
-3.5806715 -1.0096279 9.143781 
-0.0 -0.0 0.0 
-0.0 -0.0 0.0 
-0.0 -0.0 0.0 
-0.0 -0.0 0.0 
-0.0 -0.0 0.0 
-0.0 -0.0 0.0 
-0.0 -0.0 0.0 
-0.0 -0.0 0.0 
-0.0 -0.0 0.0 
-0.0 -0.0 0.0 
-0.0 -0.0 0.0 
-0.0 -0.0 0.0 
-2.6230888 -1.3289546 6.6984496 
-2.5702152 -1.3465863 6.5634294 
-2.6230888 -1.4196211 6.6984496 
-2.6230888 -1.4649544 6.6984496 
-2.6230888 -1.5102876 6.6984496 
-2.6230888 -1.5556209 6.6984496 
-2.6230888 -1.6009542 6.6984496 
-2.5702152 -1.6131033 6.5634294 
-2.5194314 -1.6247724 6.433745 
-2.6230888 -1.736954 6.6984496 
-2.6230888 -1.7822872 6.6984496 
-2.5194314 -1.7553979 6.433745 
-2.5194314 -1.7989397 6.433745 
-2.6230888 -1.918287 6.6984496 
-2.5702152 -1.9240397 6.5634294 
-2.4706151 -1.892178 6.3090854 
-2.4706151 -1.9348763 6.3090854 
-2.4236548 -1.9399856 6.189165 
-2.4706151 -2.0202725 6.3090854 
-2.4706151 -2.0629706 6.3090854 
-2.5194314 -2.1472743 6.433745 
-2.4236548 -2.1075318 6.189165 
-2.4236548 -2.1494184 6.189165 
-2.4236548 -2.191305 6.189165 
-0.0 -0.0 0.0 
-0.0 -0.0 0.0 
-0.0 -0.0 0.0 
-0.0 -0.0 0.0 
-2.2929072 -2.2712264 5.8552814 
-2.252404 -2.2700334 5.7518506 
-1.0084856 1.0398039 2.531797 
-1.0163884 1.0306833 2.551637 
-1.0163884 1.0134145 2.551637 
-1.0325716 1.0120066 2.5922647 
-1.0492784 1.0105531 2.634207 
-1.0578362 1.0008221 2.6556914 
-1.0753775 0.99914694 2.6997287 
-1.0843681 0.98907644 2.7222996 
-1.0843681 0.9706527 2.7222996 
-1.1122652 0.9767266 2.7923353 
-1.1316748 0.9745433 2.8410625 
-1.1517736 0.97228247 2.8915207 
-1.1620932 0.96124953 2.917428 
-1.1725993 0.95001704 2.9438035 
-1.1832972 0.9385796 2.9706604 
-1.2052894 0.9355453 3.0258718 
-1.2281146 0.9323962 3.0831742 
-1.2398545 0.9202436 3.112647 
-1.2398545 0.8991781 3.112647 
-1.2640207 0.89522797 3.1733162 
-1.2764604 0.8823508 3.2045462 
-1.2891476 0.86921775 3.2363973 
-1.3020895 0.85582095 3.2688878 
-1.3425225 0.8595864 3.3703947 
-1.3565642 0.8455284 3.405646 
-1.3709025 0.8311733 3.4416425 
-1.4005082 0.825328 3.5159674 
-1.4005082 0.80153286 3.5159674 
-1.4157958 0.78622735 3.5543468 
-1.4473946 0.7791833 3.6336756 
-1.463729 0.7631074 3.6746829 
-1.4804362 0.7466645 3.7166262 
-1.4975291 0.7298419 3.759538 
-1.5329273 0.7210487 3.8484046 
-1.5329273 0.69500375 3.8484046 
-1.5512613 0.6769597 3.8944323 
-1.5892775 0.66654736 3.9898717 
-1.6089929 0.6474787 4.039367 
-1.6292039 0.6279311 4.0901065 
-1.6711879 0.6157186 4.195507 
-1.6711879 0.5873246 4.195507 
-1.6930019 0.56622624 4.250271 
-1.715393 0.5445699 4.3064837 
-1.7383841 0.52233297 4.364203 
-1.7620001 0.49949187 4.4234905 
-1.8112106 0.482669 4.5470333 
-1.8112106 0.45189592 4.5470333 
-1.8368613 0.4270869 4.611429 
-1.8904059 0.40741783 4.7458525 
-1.918366 0.3808501 4.816046 
-2.0074394 0.36442664 5.0396647 
-2.0074394 0.33031958 5.0396647 
-2.038998 0.30086917 5.1188917 
-2.1051874 0.2748681 5.2850604 
-2.1399205 0.24304512 5.372257 
-2.1399205 0.20668717 5.372257 
-2.1758187 0.17318657 5.46238 
-2.2911232 0.14343739 5.7518506 
-2.2911232 0.10451044 5.7518506 
-2.3323224 0.06676283 5.8552814 
-2.4653177 0.02868325 6.189165 
-2.4653177 -0.01320332 6.189165 
-2.6143975 -0.058421224 6.5634294 
-2.7242215 -0.107160784 6.839142 
-2.66818 -0.15028958 6.6984496 
-2.7242215 -0.19973165 6.839142 
-2.843677 -0.2568048 7.1390343 
-2.9740891 -0.31911272 7.466433 
-2.9740891 -0.3696435 7.466433 
-3.043886 -0.43003502 7.6416574 
-3.1170375 -0.4933293 7.825304 
-3.1937916 -0.55974066 8.017995 
-3.3592274 -0.6458091 8.43332 
-3.5427387 -0.74128133 8.894024 
-3.6422238 -0.82398015 9.143781 
-3.747458 -0.91145784 9.40797 
-3.747458 -0.9751284 9.40797 
-0.0 -0.0 0.0 
-0.0 -0.0 0.0 
-0.0 -0.0 0.0 
-0.0 -0.0 0.0 
-0.0 -0.0 0.0 
-0.0 -0.0 0.0 
-0.0 -0.0 0.0 
-0.0 -0.0 0.0 
-0.0 -0.0 0.0 
-0.0 -0.0 0.0 
-0.0 -0.0 0.0 
-0.0 -0.0 0.0 
-0.0 -0.0 0.0 
-2.6143975 -1.3021669 6.5634294 
-2.6143975 -1.3465863 6.5634294 
-2.66818 -1.4196211 6.6984496 
-2.66818 -1.4649544 6.6984496 
-2.6143975 -1.4798448 6.5634294 
-2.6143975 -1.5242643 6.5634294 
-2.66818 -1.6009542 6.6984496 
-2.66818 -1.6462874 6.6984496 
-2.6143975 -1.6575228 6.5634294 
-2.6143975 -1.7019423 6.5634294 
-2.5627406 -1.711856 6.433745 
-2.5627406 -1.7553979 6.433745 
-2.5627406 -1.7989397 6.433745 
-2.6143975 -1.8796203 6.5634294 
-2.5627406 -1.8860233 6.433745 
-2.5130851 -1.892178 6.3090854 
-2.5130851 -1.9348763 6.3090854 
-2.5130851 -1.9775745 6.3090854 
-2.5130851 -2.0202725 6.3090854 
-2.5130851 -2.0629706 6.3090854 
-2.5130851 -2.105669 6.3090854 
-2.419332 -2.0682201 6.0737185 
-2.4653177 -2.1494184 6.189165 
-2.4653177 -2.191305 6.189165 
-0.0 -0.0 0.0 
-0.0 -0.0 0.0 
-0.0 -0.0 0.0 
-0.0 -0.0 0.0 
-2.3750305 -2.312816 5.9625 
-2.3323224 -2.3108535 5.8552814 
-1.0255286 1.0398039 2.531797 
-1.0335649 1.0306833 2.551637 
-1.0335649 1.0134145 2.551637 
-1.0417283 1.0040135 2.5717902 
-1.0670108 1.0105531 2.634207 
-1.0757132 1.0008221 2.6556914 
-1.0935509 0.99914694 2.6997287 
-1.1026934 0.98907644 2.7222996 
-1.1119902 0.97883624 2.7452512 
-1.1214451 0.9684218 2.768593 
-1.1408455 0.9661138 2.8164883 
-1.1712381 0.97228247 2.8915207 
-1.1712381 0.95271343 2.8915207 
-1.181732 0.9415052 2.917428 
-1.2032944 0.9385796 2.9706604 
-1.2143735 0.9269316 2.998012 
-1.2256583 0.9150671 3.0258718 
-1.2488692 0.9115301 3.0831742 
-1.2608074 0.8991781 3.112647 
-1.285382 0.89522797 3.1733162 
-1.3109337 0.8911208 3.2363973 
-1.3240943 0.87794393 3.2688878 
-1.3240943 0.85582095 3.2688878 
-1.3512243 0.8507801 3.3358657 
-1.3652107 0.8367765 3.3703947 
-1.3940701 0.8311733 3.4416425 
-1.4241762 0.825328 3.5159674 
-1.4241762 0.80153286 3.5159674 
-1.4556113 0.7949044 3.5935736 
-1.471855 0.7791833 3.6336756 
-1.471855 0.7545916 3.6336756 
-1.4884654 0.73823816 3.6746829 
-1.505455 0.7215114 3.7166262 
-1.5406247 0.7126263 3.8034523 
-1.5588331 0.69500375 3.8484046 
-1.577477 0.6769597 3.8944323 
-1.6161357 0.66654736 3.9898717 
-1.6361843 0.6474787 4.039367 
-1.6567367 0.6279311 4.0901065 
-1.6567367 0.6002504 4.0901065 
-1.7216128 0.5949909 4.250271 
-1.7443824 0.573715 4.3064837 
-1.7443824 0.5445699 4.3064837 
-1.7917771 0.52942884 4.4234905 
-1.8164537 0.5063709 4.4844112 
-1.8164537 0.47602165 4.4844112 
-1.8679035 0.45829576 4.611429 
-1.8947371 0.43322223 4.6776752 
-1.9223529 0.40741783 4.7458525 
-1.9800719 0.38656765 4.8883476 
-2.010251 0.35887226 4.962853 
-2.0413644 0.33031958 5.0396647 
-2.073456 0.30086917 5.1188917 
-2.1407642 0.2748681 5.2850604 
-2.176084 0.24304512 5.372257 
-2.2125893 0.21015446 5.46238 
-2.25034 0.17614144 5.5555778 
-2.329842 0.14343739 5.7518506 
-2.3717377 0.10638977 5.8552814 
-2.3717377 0.06676283 5.8552814 
-2.4151676 0.027632788 5.9625 
-2.5069804 -0.01320332 6.189165 
-2.6060498 -0.057266902 6.433745 
-2.7132711 -0.104956314 6.6984496 
-2.7702599 -0.15344621 6.839142 
-2.7702599 -0.19973165 6.839142 
-2.8917341 -0.2568048 7.1390343 
-3.0243502 -0.31911272 7.466433 
-3.0243502 -0.3696435 7.466433 
-3.0243502 -0.42017427 7.466433 
-3.2477655 -0.5054771 8.017995 
-3.3297577 -0.57387173 8.220415 
-3.506822 -0.66298 8.657547 
-3.506822 -0.7215719 8.657547 
-3.506822 -0.7801638 8.657547 
-3.703776 -0.88586277 9.143781 
-3.8107884 -0.9751284 9.40797 
-0.0 -0.0 0.0 
-0.0 -0.0 0.0 
-0.0 -0.0 0.0 
-0.0 -0.0 0.0 
-0.0 -0.0 0.0 
-0.0 -0.0 0.0 
-0.0 -0.0 0.0 
-0.0 -0.0 0.0 
-0.0 -0.0 0.0 
-0.0 -0.0 0.0 
-0.0 -0.0 0.0 
-0.0 -0.0 0.0 
-0.0 -0.0 0.0 
-2.7132711 -1.3289546 6.6984496 
-2.6585798 -1.3465863 6.5634294 
-2.7132711 -1.4196211 6.6984496 
-2.7702599 -1.4957238 6.839142 
-2.7132711 -1.5102876 6.6984496 
-2.7132711 -1.5556209 6.6984496 
-2.7132711 -1.6009542 6.6984496 
-2.7132711 -1.6462874 6.6984496 
-2.7132711 -1.6916207 6.6984496 
-2.6585798 -1.7019423 6.5634294 
-2.6060498 -1.711856 6.433745 
-2.5555553 -1.7213855 6.3090854 
-2.6060498 -1.7989397 6.433745 
-2.6060498 -1.8424815 6.433745 
-2.6060498 -1.8860233 6.433745 
-2.6060498 -1.9295652 6.433745 
-2.6060498 -1.973107 6.433745 
-2.5555553 -1.9775745 6.3090854 
-2.5555553 -2.0202725 6.3090854 
-2.5555553 -2.0629706 6.3090854 
-2.4602177 -2.0271149 6.0737185 
-2.4151676 -2.030348 5.9625 
-2.4602177 -2.1093254 6.0737185 
-2.5069804 -2.191305 6.189165 
-0.0 -0.0 0.0 
-0.0 -0.0 0.0 
-1.3652107 -1.261735 3.3703947 
-1.3794895 -1.2979801 3.405646 
-0.0 -0.0 0.0 
-2.329842 -2.2700334 5.7518506 
-1.0266069 1.0238816 2.4930282 
-1.0425715 1.0226693 2.531797 
-1.0507414 1.0134145 2.551637 
-1.0590404 1.0040135 2.5717902 
-1.0674716 0.99446285 2.5922647 
-1.0847431 0.9927255 2.634207 
-1.0935901 0.9828491 2.6556914 
-1.1210189 0.98907644 2.7222996 
-1.1304702 0.97883624 2.7452512 
-1.1304702 0.9602571 2.7452512 
-1.149859 0.9578288 2.7923353 
-1.1699244 0.95531577 2.8410625 
-1.1907026 0.95271343 2.8915207 
-1.201371 0.9415052 2.917428 
-1.2122322 0.9300942 2.9438035 
-1.2345548 0.9269316 2.998012 
-1.2460272 0.9150671 3.0258718 
-1.2577149 0.90297997 3.0542543 
-1.2817605 0.8991781 3.112647 
-1.2941314 0.8865876 3.1426888 
-1.3196037 0.8823508 3.2045462 
-1.3327197 0.86921775 3.2363973 
-1.346099 0.85582095 3.2688878 
-1.3597497 0.8421525 3.3020372 
-1.37368 0.8282039 3.3358657 
-1.4024149 0.82247996 3.405646 
-1.4323776 0.8165114 3.4784079 
-1.4323776 0.7929705 3.4784079 
-1.4798018 0.7949044 3.5935736 
-1.4963154 0.7791833 3.6336756 
-1.5132018 0.7631074 3.6746829 
-1.5304737 0.7466645 3.7166262 
-1.5304737 0.7215114 3.7166262 
-1.5481445 0.7043984 3.759538 
-1.584739 0.69500375 3.8484046 
-1.6231054 0.68515426 3.9415743 
-1.6429938 0.66654736 3.9898717 
-1.6633756 0.6474787 4.039367 
-1.6842695 0.6279311 4.0901065 
-1.7056949 0.6078861 4.142136 
-1.7502239 0.5949909 4.250271 
-1.7733718 0.573715 4.3064837 
-1.7971401 0.5518687 4.364203 
-1.7971401 0.52233297 4.364203 
-1.8466408 0.5063709 4.4844112 
-1.8989457 0.48950467 4.611429 
-1.9262252 0.46487948 4.6776752 
-1.9262252 0.43322223 4.6776752 
-1.9543 0.40741783 4.7458525 
-2.043659 0.39245948 4.962853 
-2.0129783 0.35348466 4.8883476 
-2.043659 0.32528505 4.962853 
-2.0752892 0.29621252 5.0396647 
-2.176341 0.2748681 5.2850604 
-2.2493596 0.24712235 5.46238 
-2.2493596 0.21015446 5.46238 
-2.2877376 0.17614144 5.5555778 
-2.368561 0.14343739 5.7518506 
-2.411153 0.10638977 5.8552814 
-2.411153 0.06676283 5.8552814 
-2.411153 0.02713589 5.8552814 
-2.5011034 -0.012957038 6.0737185 
-2.6493592 -0.057266902 6.433745 
-2.7027621 -0.102840714 6.5634294 
-2.7583623 -0.15028958 6.6984496 
-2.816298 -0.19973165 6.839142 
-2.87672 -0.25129524 6.9858713 
-3.0056899 -0.31195945 7.299064 
-3.074611 -0.3696435 7.466433 
-3.074611 -0.42017427 7.466433 
-3.3017392 -0.5054771 8.017995 
-3.4727664 -0.58873475 8.43332 
-3.5651011 -0.66298 8.657547 
-3.5651011 -0.7215719 8.657547 
-3.66248 -0.8014737 8.894024 
-0.0 -0.0 0.0 
-0.0 -0.0 0.0 
-0.0 -0.0 0.0 
-0.0 -0.0 0.0 
-0.0 -0.0 0.0 
-0.0 -0.0 0.0 
-0.0 -0.0 0.0 
-0.0 -0.0 0.0 
-0.0 -0.0 0.0 
-0.0 -0.0 0.0 
-0.0 -0.0 0.0 
-0.0 -0.0 0.0 
-0.0 -0.0 0.0 
-0.0 -0.0 0.0 
-0.0 -0.0 0.0 
-2.7027621 -1.3021669 6.5634294 
-2.7583623 -1.3742878 6.6984496 
-2.7583623 -1.4196211 6.6984496 
-2.7583623 -1.4649544 6.6984496 
-2.7027621 -1.4798448 6.5634294 
-2.7027621 -1.5242643 6.5634294 
-2.7583623 -1.6009542 6.6984496 
-2.7583623 -1.6462874 6.6984496 
-2.7583623 -1.6916207 6.6984496 
-2.7027621 -1.7019423 6.5634294 
-2.6493592 -1.711856 6.433745 
-2.5980256 -1.7213855 6.3090854 
-2.6493592 -1.7989397 6.433745 
-2.5980256 -1.8067818 6.3090854 
-2.5980256 -1.8494799 6.3090854 
-2.6493592 -1.9295652 6.433745 
-2.5980256 -1.9348763 6.3090854 
-2.5486434 -1.9399856 6.189165 
-2.5486434 -1.9818722 6.189165 
-2.5486434 -2.0237586 6.189165 
-2.5486434 -2.0656452 6.189165 
-2.5011034 -2.0682201 6.0737185 
-2.5011034 -2.1093254 6.0737185 
-2.5011034 -2.1504307 6.0737185 
-0.0 -0.0 0.0 
-0.0 -0.0 0.0 
-1.3878987 -1.261735 3.3703947 
-1.3878987 -1.2845448 3.3703947 
-2.327448 -2.1923792 5.652011 
-2.411153 -2.3108535 5.8552814 
-1.0354611 1.016102 2.4740858 
-1.0514392 1.014779 2.512263 
-1.0596145 1.0055349 2.531797 
-1.0679181 0.9961458 2.551637 
-1.0849216 0.99446285 2.5922647 
-1.093628 0.98475885 2.6130674 
-1.1024755 0.9748979 2.634207 
-1.1393442 0.98907644 2.7222996 
-1.1587191 0.9871589 2.768593 
-1.1587191 0.9684218 2.768593 
-1.1686558 0.9578288 2.7923353 
-1.1787643 0.9470526 2.8164883 
-1.2101672 0.95271343 2.8915207 
-1.2210099 0.9415052 2.917428 
-1.2320486 0.9300942 2.9438035 
-1.2547362 0.9269316 2.998012 
-1.266396 0.9150671 3.0258718 
-1.2547362 0.8863522 2.998012 
-1.3027135 0.8991781 3.112647 
-1.3152866 0.8865876 3.1426888 
-1.3411754 0.8823508 3.2045462 
-1.3545058 0.86921775 3.2363973 
-1.3681037 0.85582095 3.2688878 
-1.3681037 0.83369803 3.2688878 
-1.3961356 0.8282039 3.3358657 
-1.4253403 0.82247996 3.405646 
-1.4557927 0.8165114 3.4784079 
-1.4557927 0.7929705 3.4784079 
-1.4875748 0.78622735 3.5543468 
-1.5207758 0.7791833 3.6336756 
-1.5379382 0.7631074 3.6746829 
-1.5554925 0.7466645 3.7166262 
-1.573452 0.7298419 3.759538 
-1.5918312 0.7126263 3.8034523 
-1.6106448 0.69500375 3.8484046 
-1.6299084 0.6769597 3.8944323 
-1.6496384 0.6584788 3.9415743 
-1.6905669 0.6474787 4.039367 
-1.7118025 0.6279311 4.0901065 
-1.7335781 0.6078861 4.142136 
-1.755915 0.5873246 4.195507 
-1.8023612 0.573715 4.3064837 
-1.8513312 0.5593658 4.4234905 
-1.8513312 0.52942884 4.4234905 
-1.876828 0.5063709 4.4844112 
-1.9030367 0.482669 4.5470333 
-1.9299879 0.45829576 4.611429 
-1.9299879 0.4270869 4.611429 
-1.9862471 0.40741783 4.7458525 
-2.0156248 0.3808501 4.816046 
-2.0770667 0.35887226 4.962853 
-2.109214 0.33031958 5.0396647 
-2.1765897 0.30567455 5.200649 
-2.2119179 0.2748681 5.2850604 
-2.2484117 0.24304512 5.372257 
-2.2861302 0.21015446 5.46238 
-2.3251355 0.17614144 5.5555778 
-2.4072802 0.14343739 5.7518506 
-2.4954417 0.10833792 5.9625 
-2.541989 0.06925348 6.0737185 
-2.541989 0.028148223 6.0737185 
-2.5903063 -0.01320332 6.189165 
-2.6404955 -0.056157302 6.3090854 
-2.8034532 -0.104956314 6.6984496 
-2.8623362 -0.15344621 6.839142 
-2.8623362 -0.19973165 6.839142 
-2.8623362 -0.24601708 6.839142 
-2.987848 -0.3051198 7.1390343 
-3.1248717 -0.3696435 7.466433 
-3.1982071 -0.43003502 7.6416574 
-3.355713 -0.5054771 8.017995 
-3.4404304 -0.57387173 8.220415 
-3.529536 -0.6458091 8.43332 
-3.722351 -0.74128133 8.894024 
-3.82688 -0.82398015 9.143781 
-4.054598 -0.9385759 9.6878805 
-0.0 -0.0 0.0 
-0.0 -0.0 0.0 
-0.0 -0.0 0.0 
-0.0 -0.0 0.0 
-0.0 -0.0 0.0 
-0.0 -0.0 0.0 
-0.0 -0.0 0.0 
-0.0 -0.0 0.0 
-0.0 -0.0 0.0 
-0.0 -0.0 0.0 
-0.0 -0.0 0.0 
-0.0 -0.0 0.0 
-0.0 -0.0 0.0 
-0.0 -0.0 0.0 
-2.8034532 -1.3289546 6.6984496 
-2.8623362 -1.403153 6.839142 
-2.8623362 -1.4494385 6.839142 
-2.8034532 -1.4649544 6.6984496 
-2.8034532 -1.5102876 6.6984496 
-2.7469442 -1.5242643 6.5634294 
-2.6926684 -1.5376887 6.433745 
-2.7469442 -1.6131033 6.5634294 
-2.8034532 -1.6916207 6.6984496 
-2.6404955 -1.6359892 6.3090854 
-2.6404955 -1.6786873 6.3090854 
-2.6404955 -1.7213855 6.3090854 
-2.6404955 -1.7640836 6.3090854 
-2.6926684 -1.8424815 6.433745 
-2.6926684 -1.8860233 6.433745 
-2.6404955 -1.892178 6.3090854 
-2.6404955 -1.9348763 6.3090854 
-2.5903063 -1.9399856 6.189165 
-2.5903063 -1.9818722 6.189165 
-2.5903063 -2.0237586 6.189165 
-2.541989 -2.0271149 6.0737185 
-2.541989 -2.0682201 6.0737185 
-2.4954417 -2.0707006 5.9625 
-2.4954417 -2.1110532 5.9625 
-2.6404955 -2.2764616 6.3090854 
-0.0 -0.0 0.0 
-1.4253403 -1.2749316 3.405646 
-1.4253403 -1.2979801 3.405646 
-2.3251355 -2.1549733 5.5555778 
-2.4072802 -2.2700334 5.7518506 
-1.0601709 1.0238816 2.4930282 
-1.0766575 1.0226693 2.531797 
-1.0766575 1.0055349 2.531797 
-1.0936649 1.0040135 2.5717902 
-1.1112181 1.0024433 2.6130674 
-1.1112181 0.98475885 2.6130674 
-1.1293441 0.9828491 2.6556914 
-1.1480713 0.9808759 2.6997287 
-1.1674298 0.97883624 2.7452512 
-1.1773561 0.9684218 2.768593 
-1.1874526 0.9578288 2.7923353 
-1.208174 0.95531577 2.8410625 
-1.2296317 0.95271343 2.8915207 
-1.2406487 0.9415052 2.917428 
-1.2518651 0.9300942 2.9438035 
-1.2632861 0.918475 2.9706604 
-1.2749175 0.9066419 2.998012 
-1.286765 0.89458877 3.0258718 
-1.3236666 0.8991781 3.112647 
-1.3364419 0.8865876 3.1426888 
-1.3627471 0.8823508 3.2045462 
-1.3762919 0.86921775 3.2363973 
-1.3901086 0.85582095 3.2688878 
-1.4185913 0.8507801 3.3358657 
-1.4332749 0.8367765 3.3703947 
-1.4482657 0.82247996 3.405646 
-1.4792079 0.8165114 3.4784079 
-1.4951802 0.80153286 3.5159674 
-1.4951802 0.7777378 3.5159674 
-1.5281826 0.77058405 3.5935736 
-1.5626746 0.7631074 3.6746829 
-1.5805112 0.7466645 3.7166262 
-1.5987597 0.7298419 3.759538 
-1.6174344 0.7126263 3.8034523 
-1.6561241 0.70331615 3.8944323 
-1.6761714 0.68515426 3.9415743 
-1.6561241 0.65060323 3.8944323 
-1.6967101 0.63954496 3.9898717 
-1.7393353 0.6279311 4.0901065 
-1.7614611 0.6078861 4.142136 
-1.7841574 0.5873246 4.195507 
-1.8313507 0.573715 4.3064837 
-1.8811083 0.5593658 4.4234905 
-1.855896 0.52233297 4.364203 
-1.8811083 0.49949187 4.4234905 
-1.9336455 0.482669 4.5470333 
-1.9892014 0.46487948 4.6776752 
-2.0181942 0.43953648 4.7458525 
-2.1104746 0.42604673 4.962853 
-2.1431391 0.39853373 5.0396647 
-2.1768308 0.3701557 5.1188917 
-2.1768308 0.33551243 5.1188917 
-2.2115982 0.30567455 5.200649 
-2.2474947 0.2748681 5.2850604 
-2.2845755 0.24304512 5.372257 
-2.3229005 0.21015446 5.46238 
-2.3625333 0.17614144 5.5555778 
-2.4459991 0.14343739 5.7518506 
-2.4899836 0.10638977 5.8552814 
-2.5828748 0.06925348 6.0737185 
-2.631969 0.02868325 6.189165 
-2.6829658 -0.013459145 6.3090854 
-2.7359776 -0.057266902 6.433745 
-2.8485444 -0.104956314 6.6984496 
-2.9083745 -0.15344621 6.839142 
-2.9707718 -0.20401677 6.9858713 
-3.035905 -0.2568048 7.1390343 
-3.1751328 -0.31911272 7.466433 
-3.1751328 -0.3696435 7.466433 
-3.2496476 -0.43003502 7.6416574 
-3.4096868 -0.5054771 8.017995 
-3.4957669 -0.57387173 8.220415 
-3.5863056 -0.6458091 8.43332 
-3.7822218 -0.74128133 8.894024 
-3.888432 -0.82398015 9.143781 
-4.119813 -0.9385759 9.6878805 
-4.3804727 -1.0676726 10.300831 
-4.3804727 -1.1373858 10.300831 
-0.0 -0.0 0.0 
-0.0 -0.0 0.0 
-0.0 -0.0 0.0 
-0.0 -0.0 0.0 
-0.0 -0.0 0.0 
-0.0 -0.0 0.0 
-0.0 -0.0 0.0 
-0.0 -0.0 0.0 
-0.0 -0.0 0.0 
-0.0 -0.0 0.0 
-0.0 -0.0 0.0 
-0.0 -0.0 0.0 
-2.8485444 -1.3289546 6.6984496 
-2.8485444 -1.3742878 6.6984496 
-2.8485444 -1.4196211 6.6984496 
-2.8485444 -1.4649544 6.6984496 
-2.9083745 -1.5420092 6.839142 
-0.0 -0.0 0.0 
-2.6829658 -1.5078946 6.3090854 
-2.7359776 -1.5812306 6.433745 
-2.9083745 -1.727151 6.839142 
-2.8485444 -1.736954 6.6984496 
-2.8485444 -1.7822872 6.6984496 
-2.7359776 -1.7553979 6.433745 
-2.5828748 -1.6982727 6.0737185 
-2.631969 -1.7724394 6.189165 
-2.631969 -1.8143259 6.189165 
-2.631969 -1.8562125 6.189165 
-2.631969 -1.8980991 6.189165 
-2.6829658 -1.9775745 6.3090854 
-2.6829658 -2.0202725 6.3090854 
-2.631969 -2.0237586 6.189165 
-2.5828748 -2.0271149 6.0737185 
-2.5355787 -2.030348 5.9625 
-2.5355787 -2.0707006 5.9625 
-2.5355787 -2.1110532 5.9625 
-0.0 -0.0 0.0 
-0.0 -0.0 0.0 
-1.4185913 -1.2488087 3.3358657 
-1.4185913 -1.271385 3.3358657 
-0.0 -0.0 0.0 
-2.3625333 -2.1925719 5.5555778 
-1.0769529 1.0238816 2.4930282 
-1.0937005 1.0226693 2.531797 
-1.0937005 1.0055349 2.531797 
-1.110977 1.0040135 2.5717902 
-1.1288081 1.0024433 2.6130674 
-1.1288081 0.98475885 2.6130674 
-1.1472212 0.9828491 2.6556914 
-1.1566546 0.9728102 2.6775289 
-1.175995 0.9706527 2.7222996 
-1.1859097 0.9602571 2.7452512 
-1.2062494 0.9578288 2.7923353 
-1.2166831 0.9470526 2.8164883 
-1.2272989 0.9360882 2.8410625 
-1.2490962 0.93314445 2.8915207 
-1.2716815 0.9300942 2.9438035 
-1.2950989 0.9269316 2.998012 
-1.2950989 0.9066419 2.998012 
-1.3071338 0.89458877 3.0258718 
-1.3318877 0.890664 3.0831742 
-1.3446195 0.87811255 3.112647 
-1.3708278 0.8737519 3.1733162 
-1.3980778 0.86921775 3.2363973 
-1.4121133 0.85582095 3.2688878 
-1.4410468 0.8507801 3.3358657 
-1.4559629 0.8367765 3.3703947 
-1.471191 0.82247996 3.405646 
-1.5026231 0.8165114 3.4784079 
-1.5188482 0.80153286 3.5159674 
-1.5354276 0.78622735 3.5543468 
-1.552373 0.77058405 3.5935736 
-1.60553 0.7718176 3.7166262 
-1.60553 0.7466645 3.7166262 
-1.60553 0.7215114 3.7166262 
-1.6430377 0.7126263 3.8034523 
-1.6823398 0.70331615 3.8944323 
-1.7027044 0.68515426 3.9415743 
-1.7235682 0.66654736 3.9898717 
-1.7449496 0.6474787 4.039367 
-1.7449496 0.6201414 4.039367 
-1.7893443 0.6078861 4.142136 
-1.836057 0.5949909 4.250271 
-1.8603401 0.573715 4.3064837 
-1.885274 0.5518687 4.364203 
-1.885274 0.52233297 4.364203 
-1.9372023 0.5063709 4.4844112 
-1.9642541 0.482669 4.5470333 
-1.9920722 0.45829576 4.611429 
-2.080464 0.44603747 4.816046 
-2.177064 0.4326408 5.0396647 
-2.177064 0.39853373 5.0396647 
-2.177064 0.36442664 5.0396647 
-2.177064 0.33031958 5.0396647 
-2.211289 0.30086917 5.1188917 
-2.3207393 0.2794031 5.372257 
-2.3596709 0.24712235 5.46238 
-2.3596709 0.21015446 5.46238 
-2.4415889 0.17919888 5.652011 
-2.529399 0.1460167 5.8552814 
-2.529399 0.10638977 5.8552814 
-2.5757158 0.067985356 5.9625 
-2.673632 0.02868325 6.189165 
-2.7254357 -0.013459145 6.3090854 
-2.8936355 -0.059623044 6.6984496 
-2.8936355 -0.104956314 6.6984496 
-2.9544127 -0.15344621 6.839142 
-3.083962 -0.20848978 7.1390343 
-3.1530926 -0.26256138 7.299064 
-3.2253935 -0.31911272 7.466433 
-3.2253935 -0.3696435 7.466433 
-3.3804207 -0.44036978 7.825304 
-3.551103 -0.5182382 8.220415 
-3.551103 -0.57387173 8.220415 
-3.739938 -0.66298 8.657547 
-3.949984 -0.7620976 9.143781 
-3.949984 -0.82398015 9.143781 
-4.1850276 -0.9385759 9.6878805 
-4.3133607 -1.0349326 9.984958 
-0.0 -0.0 0.0 
-0.0 -0.0 0.0 
-0.0 -0.0 0.0 
-0.0 -0.0 0.0 
-0.0 -0.0 0.0 
-0.0 -0.0 0.0 
-0.0 -0.0 0.0 
-0.0 -0.0 0.0 
-0.0 -0.0 0.0 
-0.0 -0.0 0.0 
-0.0 -0.0 0.0 
-0.0 -0.0 0.0 
-0.0 -0.0 0.0 
-3.0177977 -1.3859782 6.9858713 
-3.0177977 -1.4332567 6.9858713 
-2.8936355 -1.4196211 6.6984496 
-2.8936355 -1.4649544 6.6984496 
-1.9920722 -1.0397308 4.611429 
-2.0206897 -1.0863245 4.6776752 
-2.050141 -1.1342763 4.7458525 
-1.9920722 -1.1333575 4.611429 
-2.0206897 -1.1812961 4.6776752 
-1.9642541 -1.1790769 4.5470333 
-1.9372023 -1.193188 4.4844112 
-0.0 -0.0 0.0 
-0.0 -0.0 0.0 
-0.0 -0.0 0.0 
-2.673632 -1.8143259 6.189165 
-2.6237607 -1.8215885 6.0737185 
-2.6237607 -1.8626938 6.0737185 
-2.7254357 -1.9775745 6.3090854 
-2.7792869 -2.0601907 6.433745 
-2.673632 -2.0237586 6.189165 
-2.6237607 -2.0271149 6.0737185 
-2.5757158 -2.030348 5.9625 
-2.5757158 -2.0707006 5.9625 
-2.529399 -2.0730917 5.8552814 
-2.529399 -2.1127188 5.8552814 
-0.0 -0.0 0.0 
-1.3980778 -1.2115718 3.2363973 
-1.4121133 -1.2458578 3.2688878 
-0.0 -0.0 0.0 
-0.0 -0.0 0.0 
-1.0854247 1.016102 2.4740858 
-1.1107435 1.0226693 2.531797 
-1.1194476 1.0134145 2.551637 
-1.1194476 0.9961458 2.551637 
-1.1372718 0.99446285 2.5922647 
-1.1463983 0.98475885 2.6130674 
-1.1556726 0.9748979 2.634207 
-1.1650982 0.9648761 2.6556914 
-1.1844181 0.9626049 2.6997287 
-1.2043896 0.9602571 2.7452512 
-1.2250462 0.9578288 2.7923353 
-1.2356426 0.9470526 2.8164883 
-1.2464237 0.9360882 2.8410625 
-1.2685606 0.93314445 2.8915207 
-1.2799265 0.9217608 2.917428 
-1.3152802 0.9269316 2.998012 
-1.3275027 0.9150671 3.0258718 
-1.3275027 0.89458877 3.0258718 
-1.3526423 0.890664 3.0831742 
-1.3655726 0.87811255 3.112647 
-1.3921891 0.8737519 3.1733162 
-1.4058903 0.86066335 3.2045462 
-1.4198639 0.8473147 3.2363973 
-1.4341182 0.83369803 3.2688878 
-1.4786509 0.8367765 3.3703947 
-1.4941163 0.82247996 3.405646 
-1.5099087 0.8078812 3.4416425 
-1.5425162 0.80153286 3.5159674 
-1.559354 0.78622735 3.5543468 
-1.5765635 0.77058405 3.5935736 
-1.5941569 0.7545916 3.6336756 
-1.6305487 0.7466645 3.7166262 
-1.6305487 0.7215114 3.7166262 
-1.6686409 0.7126263 3.8034523 
-1.7085555 0.70331615 3.8944323 
-1.7292374 0.68515426 3.9415743 
-1.7504263 0.66654736 3.9898717 
-1.7721409 0.6474787 4.039367 
-1.7721409 0.6201414 4.039367 
-1.8406421 0.6157186 4.195507 
-1.8406421 0.5873246 4.195507 
-1.8893296 0.573715 4.3064837 
-1.914652 0.5518687 4.364203 
-1.9406625 0.52942884 4.4234905 
-1.9673895 0.5063709 4.4844112 
-2.0231144 0.48950467 4.611429 
-2.0820882 0.4716551 4.7458525 
-2.1128836 0.44603747 4.816046 
-2.1446035 0.41965064 4.8883476 
-2.1772902 0.39245948 4.962853 
-2.2109888 0.36442664 5.0396647 
-2.2109888 0.33031958 5.0396647 
-2.356903 0.31576106 5.372257 
-2.3964415 0.28409022 5.46238 
-2.4373288 0.2513387 5.5555778 
-2.4796357 0.21745014 5.652011 
-2.5234373 0.18236433 5.7518506 
-2.568814 0.1460167 5.8552814 
-2.568814 0.10638977 5.8552814 
-2.6158528 0.067985356 5.9625 
-2.7152948 0.02868325 6.189165 
-2.879491 -0.014001736 6.5634294 
-2.9387267 -0.059623044 6.6984496 
-3.0004508 -0.107160784 6.839142 
-3.1320188 -0.16017474 7.1390343 
-3.1320188 -0.20848978 7.1390343 
-3.2022269 -0.26256138 7.299064 
-3.2022269 -0.31195945 7.299064 
-3.2756546 -0.3696435 7.466433 
-0.0 -0.0 0.0 
-3.6064396 -0.5182382 8.220415 
-3.6064396 -0.57387173 8.220415 
-3.6998446 -0.6458091 8.43332 
-3.9019635 -0.74128133 8.894024 
-4.011536 -0.82398015 9.143781 
-4.250242 -0.9385759 9.6878805 
-0.0 -0.0 0.0 
-0.0 -0.0 0.0 
-0.0 -0.0 0.0 
-0.0 -0.0 0.0 
-0.0 -0.0 0.0 
-0.0 -0.0 0.0 
-0.0 -0.0 0.0 
-0.0 -0.0 0.0 
-0.0 -0.0 0.0 
-0.0 -0.0 0.0 
-0.0 -0.0 0.0 
-0.0 -0.0 0.0 
-0.0 -0.0 0.0 
-0.0 -0.0 0.0 
-3.0004508 -1.3568676 6.839142 
-2.9387267 -1.3742878 6.6984496 
-2.879491 -1.3910059 6.5634294 
-0.0 -0.0 0.0 
-2.0231144 -1.0397308 4.611429 
-1.9948628 -1.0559846 4.5470333 
-1.9948628 -1.0867578 4.5470333 
-1.9948628 -1.1175308 4.5470333 
-1.9948628 -1.1483039 4.5470333 
-1.9948628 -1.1790769 4.5470333 
-1.9673895 -1.193188 4.4844112 
-1.9948628 -1.2406231 4.5470333 
-1.9948628 -1.2713962 4.5470333 
-1.9673895 -1.2842357 4.4844112 
-1.9673895 -1.314585 4.4844112 
-1.9948628 -1.3637154 4.5470333 
-1.9673895 -1.3752835 4.4844112 
-1.9673895 -1.4056327 4.4844112 
-1.914652 -1.3974893 4.364203 
-1.9406625 -1.4464111 4.4234905 
-2.6158528 -1.9899955 5.9625 
-0.0 -0.0 0.0 
-0.0 -0.0 0.0 
-2.6158528 -2.1110532 5.9625 
-0.0 -0.0 0.0 
-0.0 -0.0 0.0 
-0.0 -0.0 0.0 
-1.4058903 -1.2213356 3.2045462 
-0.0 -0.0 0.0 
-2.5234373 -2.2700334 5.7518506 
-1.1020792 1.016102 2.4740858 
-1.1190852 1.014779 2.512263 
-1.1366242 1.0134145 2.551637 
-1.1366242 0.9961458 2.551637 
-1.1366242 0.978877 2.551637 
-1.1639884 0.98475885 2.6130674 
-1.1734049 0.9748979 2.634207 
-1.1829752 0.9648761 2.6556914 
-1.2025915 0.9626049 2.6997287 
-1.2126456 0.9522289 2.7222996 
-1.2332671 0.94968474 2.768593 
-1.2438431 0.93893105 2.7923353 
-1.254602 0.9279914 2.8164883 
-1.2880251 0.93314445 2.8915207 
-1.2995654 0.9217608 2.917428 
-1.3354615 0.9269316 2.998012 
-1.3232778 0.8983704 2.9706604 
-1.3354615 0.8863522 2.998012 
-1.3478717 0.8741105 3.0258718 
-1.3999076 0.8865876 3.1426888 
-1.3999076 0.8653188 3.1426888 
-1.4135506 0.8522757 3.1733162 
-1.4561229 0.85582095 3.2688878 
-1.4561229 0.83369803 3.2688878 
-1.4859581 0.8282039 3.3358657 
-1.5013391 0.8139666 3.3703947 
-1.5330763 0.8078812 3.4416425 
-1.5661843 0.80153286 3.5159674 
-1.5832803 0.78622735 3.5543468 
-1.6007539 0.77058405 3.5935736 
-1.6186173 0.7545916 3.6336756 
-1.6555675 0.7466645 3.7166262 
-1.6746825 0.7298419 3.759538 
-1.6942441 0.7126263 3.8034523 
-1.6942441 0.6868856 3.8034523 
-1.7557704 0.68515426 3.9415743 
-1.7772845 0.66654736 3.9898717 
-1.7993321 0.6474787 4.039367 
-1.7993321 0.6201414 4.039367 
-1.8451105 0.6078861 4.142136 
-1.8688846 0.5873246 4.195507 
-1.918319 0.573715 4.3064837 
-1.9704396 0.5593658 4.4234905 
-1.9975766 0.5367202 4.4844112 
-2.0254714 0.5134421 4.5470333 
-2.0541565 0.48950467 4.611429 
-2.1140354 0.4716551 4.7458525 
-2.145303 0.44603747 4.816046 
-2.145303 0.41344377 4.816046 
-2.1775098 0.38656765 4.8883476 
-2.2449138 0.36442664 5.0396647 
-2.2802052 0.33551243 5.1188917 
-2.354225 0.31063595 5.2850604 
-2.3930666 0.2794031 5.372257 
-2.4332118 0.24712235 5.46238 
-2.4747267 0.21374007 5.5555778 
-2.5621562 0.18236433 5.7518506 
-2.6082294 0.1460167 5.8552814 
-2.6082294 0.10638977 5.8552814 
-2.65599 0.067985356 5.9625 
-2.810376 0.029239014 6.3090854 
-2.8659053 -0.013725081 6.433745 
-2.9236732 -0.058421224 6.5634294 
-3.046489 -0.107160784 6.839142 
-3.180076 -0.16017474 7.1390343 
-3.180076 -0.20848978 7.1390343 
-3.180076 -0.2568048 7.1390343 
-3.2513611 -0.31195945 7.299064 
-3.3259153 -0.3696435 7.466433 
-0.0 -0.0 0.0 
-3.6617758 -0.5182382 8.220415 
-3.7566142 -0.58873475 8.43332 
-3.7566142 -0.6458091 8.43332 
-0.0 -0.0 0.0 
-3.9618342 -0.8014737 8.894024 
-4.190771 -0.91145784 9.40797 
-0.0 -0.0 0.0 
-0.0 -0.0 0.0 
-0.0 -0.0 0.0 
-0.0 -0.0 0.0 
-0.0 -0.0 0.0 
-0.0 -0.0 0.0 
-0.0 -0.0 0.0 
-0.0 -0.0 0.0 
-0.0 -0.0 0.0 
-0.0 -0.0 0.0 
-0.0 -0.0 0.0 
-0.0 -0.0 0.0 
-0.0 -0.0 0.0 
-0.0 -0.0 0.0 
-3.046489 -1.3568676 6.839142 
-2.9838178 -1.3742878 6.6984496 
-2.9838178 -1.4196211 6.6984496 
-0.0 -0.0 0.0 
-2.0836658 -1.0546672 4.6776752 
-2.0254714 -1.0559846 4.5470333 
-2.0254714 -1.0867578 4.5470333 
-1.9975766 -1.1021401 4.4844112 
-1.9704396 -1.1171045 4.4234905 
-1.9975766 -1.1628386 4.4844112 
-1.9975766 -1.193188 4.4844112 
-1.9704396 -1.2069154 4.4234905 
-1.9975766 -1.2538865 4.4844112 
-1.9975766 -1.2842357 4.4844112 
-1.9975766 -1.314585 4.4844112 
-1.9975766 -1.3449342 4.4844112 
-1.9975766 -1.3752835 4.4844112 
-1.9704396 -1.3865372 4.4234905 
-1.918319 -1.3790067 4.3064837 
-1.918319 -1.4081519 4.3064837 
-1.893279 -1.4185357 4.250271 
-1.893279 -1.4473004 4.250271 
-1.893279 -1.476065 4.250271 
-1.7993321 -1.4301583 4.039367 
-1.918319 -1.5538774 4.3064837 
-0.0 -0.0 0.0 
-0.0 -0.0 0.0 
-1.3999076 -1.1977602 3.1426888 
-0.0 -0.0 0.0 
-0.0 -0.0 0.0 
-1.1187336 1.016102 2.4740858 
-1.1359966 1.014779 2.512263 
-1.1448295 1.0055349 2.531797 
-1.1538007 0.9961458 2.551637 
-1.1629137 0.9866083 2.5717902 
-1.1815784 0.98475885 2.6130674 
-1.2008522 0.9828491 2.6556914 
-1.2107266 0.9728102 2.6775289 
-1.2107266 0.9546894 2.6775289 
-1.2309711 0.9522289 2.7222996 
-1.2519041 0.94968474 2.768593 
-1.2626399 0.93893105 2.7923353 
-1.2735614 0.9279914 2.8164883 
-1.295981 0.9249309 2.8660696 
-1.3192043 0.9217608 2.917428 
-1.3311309 0.91017133 2.9438035 
-1.3432751 0.8983704 2.9706604 
-1.3556429 0.8863522 2.998012 
-1.3682405 0.8741105 3.0258718 
-1.4074786 0.87811255 3.112647 
-1.421063 0.8653188 3.1426888 
-1.4349121 0.8522757 3.1733162 
-1.4781276 0.85582095 3.2688878 
-1.4781276 0.83369803 3.2688878 
-1.4931172 0.8198052 3.3020372 
-1.5399671 0.82247996 3.405646 
-1.556244 0.8078812 3.4416425 
-1.5728686 0.7929705 3.4784079 
-1.5898522 0.7777378 3.5159674 
-1.6430776 0.7791833 3.6336756 
-1.6616203 0.7631074 3.6746829 
-1.6999902 0.75528544 3.759538 
-1.7198473 0.738367 3.8034523 
-1.7401739 0.7210487 3.8484046 
-1.7609868 0.70331615 3.8944323 
-1.7609868 0.6769597 3.8944323 
-1.8265235 0.6748161 4.039367 
-1.8494668 0.6556118 4.0901065 
-1.8494668 0.6279311 4.0901065 
-1.8494668 0.6002504 4.0901065 
-1.92189 0.5949909 4.250271 
-1.973408 0.58140445 4.364203 
-2.0277638 0.5670695 4.4844112 
-2.0277638 0.5367202 4.4844112 
-2.0560803 0.5134421 4.5470333 
-2.0560803 0.482669 4.5470333 
-2.0851989 0.45829576 4.611429 
-2.1777227 0.44603747 4.816046 
-2.210416 0.41965064 4.8883476 
-2.2441058 0.39245948 4.962853 
-2.2788386 0.36442664 5.0396647 
-2.3146636 0.33551243 5.1188917 
-2.3146636 0.30086917 5.1188917 
-2.3898017 0.2748681 5.2850604 
-2.4292305 0.24304512 5.372257 
-2.5121245 0.21374007 5.5555778 
-2.5557296 0.17919888 5.652011 
-2.6008754 0.14343739 5.7518506 
-2.6476448 0.10638977 5.8552814 
-2.696127 0.067985356 5.9625 
-2.7986205 0.02868325 6.189165 
-2.9092147 -0.013725081 6.433745 
-3.028909 -0.059623044 6.6984496 
-3.0925274 -0.107160784 6.839142 
-3.1588755 -0.15673831 6.9858713 
-3.1588755 -0.20401677 6.9858713 
-3.1588755 -0.25129524 6.9858713 
-3.3004951 -0.31195945 7.299064 
-3.3004951 -0.3613575 7.299064 
-3.6255817 -0.45121348 8.017995 
-3.6255817 -0.5054771 8.017995 
-3.7171123 -0.57387173 8.220415 
-0.0 -0.0 0.0 
-0.0 -0.0 0.0 
-4.13464 -0.82398015 9.143781 
-4.13464 -0.88586277 9.143781 
-4.2541018 -0.9751284 9.40797 
-0.0 -0.0 0.0 
-0.0 -0.0 0.0 
-0.0 -0.0 0.0 
-0.0 -0.0 0.0 
-0.0 -0.0 0.0 
-0.0 -0.0 0.0 
-0.0 -0.0 0.0 
-0.0 -0.0 0.0 
-0.0 -0.0 0.0 
-0.0 -0.0 0.0 
-0.0 -0.0 0.0 
-0.0 -0.0 0.0 
-0.0 -0.0 0.0 
-3.0925274 -1.3568676 6.839142 
-3.028909 -1.3742878 6.6984496 
-3.028909 -1.4196211 6.6984496 
-2.0277638 -0.98074305 4.4844112 
-2.0851989 -1.0397308 4.611429 
-2.0560803 -1.0559846 4.5470333 
-2.0277638 -1.0717908 4.4844112 
-2.0277638 -1.1021401 4.4844112 
-2.0277638 -1.1324893 4.4844112 
-2.0277638 -1.1628386 4.4844112 
-2.0277638 -1.193188 4.4844112 
-2.0002167 -1.2069154 4.4234905 
-1.973408 -1.220275 4.364203 
-2.0002167 -1.2667893 4.4234905 
-2.0002167 -1.2967263 4.4234905 
-1.9473084 -1.2915714 4.3064837 
-1.973408 -1.3384179 4.364203 
-1.9473084 -1.3498616 4.3064837 
-1.9473084 -1.3790067 4.3064837 
-1.9473084 -1.4081519 4.3064837 
-1.92189 -1.4185357 4.250271 
-1.92189 -1.4473004 4.250271 
-1.9473084 -1.4955871 4.3064837 
-1.9473084 -1.5247322 4.3064837 
-1.9473084 -1.5538774 4.3064837 
-0.0 -0.0 0.0 
-0.0 -0.0 0.0 
-1.421063 -1.1977602 3.1426888 
-0.0 -0.0 0.0 
-0.0 -0.0 0.0 
-1.144081 1.0238816 2.4930282 
-1.1529081 1.014779 2.512263 
-1.1618725 1.0055349 2.531797 
-1.1709772 0.9961458 2.551637 
-1.1802258 0.9866083 2.5717902 
-1.1991684 0.98475885 2.6130674 
-1.2088697 0.9748979 2.634207 
-1.2287506 0.9728102 2.6775289 
-1.2389385 0.9626049 2.6997287 
-1.2389385 0.9443339 2.6997287 
-1.2705411 0.94968474 2.768593 
-1.2814367 0.93893105 2.7923353 
-1.2925208 0.9279914 2.8164883 
-1.3152742 0.9249309 2.8660696 
-1.3388432 0.9217608 2.917428 
-1.3388432 0.90201646 2.917428 
-1.3632723 0.8983704 2.9706604 
-1.3886094 0.89458877 3.0258718 
-1.4149063 0.890664 3.0831742 
-1.4284316 0.87811255 3.112647 
-1.4422182 0.8653188 3.1426888 
-1.4706053 0.86066335 3.2045462 
-1.4852221 0.8473147 3.2363973 
-1.5001324 0.83369803 3.2688878 
-1.5153451 0.8198052 3.3020372 
-1.5467151 0.8139666 3.3703947 
-1.5628924 0.7994315 3.405646 
-1.5794116 0.7845891 3.4416425 
-1.6135203 0.7777378 3.5159674 
-1.6311331 0.7621725 3.5543468 
-1.6491346 0.74626374 3.5935736 
-1.6675379 0.72999984 3.6336756 
-1.705605 0.7215114 3.7166262 
-1.7660798 0.7210487 3.8484046 
-1.7872025 0.70331615 3.8944323 
-1.8088365 0.68515426 3.9415743 
-1.8537148 0.6748161 4.039367 
-1.8537148 0.6474787 4.039367 
-1.8537148 0.6201414 4.039367 
-1.8769997 0.6002504 4.0901065 
-1.9253693 0.5873246 4.195507 
-1.9505011 0.56622624 4.250271 
-2.0299938 0.5593658 4.4234905 
-2.057951 0.5367202 4.4844112 
-2.086689 0.5134421 4.5470333 
-2.086689 0.482669 4.5470333 
-2.086689 0.45189592 4.5470333 
-2.1779294 0.43953648 4.7458525 
-2.2101424 0.41344377 4.816046 
-2.3127635 0.39853373 5.0396647 
-2.3491218 0.3701557 5.1188917 
-2.3491218 0.33551243 5.1188917 
-2.3491218 0.30086917 5.1188917 
-2.4253786 0.2748681 5.2850604 
-2.5067527 0.24712235 5.46238 
-2.5495224 0.21374007 5.5555778 
-2.6395943 0.18236433 5.7518506 
-2.6870599 0.1460167 5.8552814 
-2.736264 0.10833792 5.9625 
-2.7873034 0.06925348 6.0737185 
-2.8402832 0.02868325 6.189165 
-2.952524 -0.013725081 6.433745 
-3.0120378 -0.058421224 6.5634294 
-3.0740001 -0.104956314 6.6984496 
-3.0740001 -0.15028958 6.6984496 
-3.1385655 -0.19973165 6.839142 
-3.2059014 -0.25129524 6.9858713 
-3.3496294 -0.31195945 7.299064 
-3.5068495 -0.3783184 7.6416574 
-3.6795554 -0.45121348 8.017995 
-3.6795554 -0.5054771 8.017995 
-3.7724485 -0.57387173 8.220415 
-3.7724485 -0.6295052 8.220415 
-3.8701532 -0.70288354 8.43332 
-4.081576 -0.8014737 8.894024 
-4.3174324 -0.91145784 9.40797 
-4.5822186 -1.0349326 9.984958 
-4.5822186 -1.1025081 9.984958 
-0.0 -0.0 0.0 
-0.0 -0.0 0.0 
-0.0 -0.0 0.0 
-0.0 -0.0 0.0 
-0.0 -0.0 0.0 
-0.0 -0.0 0.0 
-0.0 -0.0 0.0 
-0.0 -0.0 0.0 
-0.0 -0.0 0.0 
-0.0 -0.0 0.0 
-0.0 -0.0 0.0 
-0.0 -0.0 0.0 
-3.0120378 -1.3021669 6.5634294 
-3.0120378 -1.3465863 6.5634294 
-3.0740001 -1.4196211 6.6984496 
-2.086689 -0.9944385 4.5470333 
-2.057951 -1.0110923 4.4844112 
-2.057951 -1.0414416 4.4844112 
-2.057951 -1.0717908 4.4844112 
-2.057951 -1.1021401 4.4844112 
-2.057951 -1.1324893 4.4844112 
-2.057951 -1.1628386 4.4844112 
-2.0299938 -1.1769785 4.4234905 
-1.9762979 -1.174991 4.3064837 
-1.9762979 -1.2041361 4.3064837 
-2.002786 -1.2498107 4.364203 
-2.002786 -1.2793465 4.364203 
-1.9505011 -1.2747124 4.250271 
-1.9762979 -1.3207165 4.3064837 
-1.9762979 -1.3498616 4.3064837 
-1.9505011 -1.3610064 4.250271 
-1.9505011 -1.3897711 4.250271 
-1.9505011 -1.4185357 4.250271 
-1.9505011 -1.4473004 4.250271 
-1.9762979 -1.4955871 4.3064837 
-1.9762979 -1.5247322 4.3064837 
-0.0 -0.0 0.0 
-0.0 -0.0 0.0 
-0.0 -0.0 0.0 
-1.4284316 -1.1863105 3.112647 
-0.0 -0.0 0.0 
-0.0 -0.0 0.0 
-1.160863 1.0238816 2.4930282 
-1.1698196 1.014779 2.512263 
-1.1698196 0.9977767 2.512263 
-1.1881539 0.9961458 2.551637 
-1.197538 0.9866083 2.5717902 
-1.197538 0.9692032 2.5717902 
-1.2167585 0.96707433 2.6130674 
-1.2467746 0.9728102 2.6775289 
-1.2571118 0.9626049 2.6997287 
-1.2676218 0.9522289 2.7222996 
-1.3002335 0.9578288 2.7923353 
-1.3002335 0.93893105 2.7923353 
-1.3114802 0.9279914 2.8164883 
-1.3345674 0.9249309 2.8660696 
-1.3464186 0.9135754 2.8915207 
-1.3707638 0.91017133 2.9438035 
-1.3960056 0.9066419 2.998012 
-1.4089783 0.89458877 3.0258718 
-1.4356608 0.890664 3.0831742 
-1.4633734 0.8865876 3.1426888 
-1.4633734 0.8653188 3.1426888 
-1.4776349 0.8522757 3.1733162 
-1.4921769 0.83897585 3.2045462 
-1.5070082 0.8254117 3.2363973 
-1.537573 0.8198052 3.3020372 
-1.5858178 0.82247996 3.405646 
-1.6025794 0.8078812 3.4416425 
-1.6025794 0.7845891 3.4416425 
-1.6371883 0.7777378 3.5159674 
-1.6371883 0.75394267 3.5159674 
-1.6733251 0.74626374 3.5935736 
-1.6919984 0.72999984 3.6336756 
-1.7306237 0.7215114 3.7166262 
-1.7710538 0.7126263 3.8034523 
-1.8134181 0.70331615 3.8944323 
-1.8134181 0.6769597 3.8944323 
-1.8353695 0.6584788 3.9415743 
-1.8809061 0.6474787 4.039367 
-1.9045326 0.6279311 4.0901065 
-1.8809061 0.5928041 4.039367 
-1.9536117 0.5873246 4.195507 
-1.9791121 0.56622624 4.250271 
-1.9791121 0.5374616 4.250271 
-2.0321639 0.52233297 4.364203 
-2.1172976 0.5134421 4.5470333 
-2.1172976 0.482669 4.5470333 
-2.1472833 0.45829576 4.611429 
-2.2098765 0.43953648 4.7458525 
-2.2098765 0.40741783 4.7458525 
-2.3109214 0.39245948 4.962853 
-2.38358 0.3701557 5.1188917 
-2.38358 0.33551243 5.1188917 
-2.4216497 0.30567455 5.200649 
-2.501558 0.2794031 5.372257 
-2.543523 0.24712235 5.46238 
-2.543523 0.21015446 5.46238 
-2.6783133 0.18236433 5.7518506 
-2.7264752 0.1460167 5.8552814 
-2.8281891 0.110358745 6.0737185 
-2.8281891 0.06925348 6.0737185 
-2.881946 0.02868325 6.189165 
-2.9958332 -0.013725081 6.433745 
-3.0562198 -0.058421224 6.5634294 
-3.0562198 -0.102840714 6.5634294 
-3.1190913 -0.15028958 6.6984496 
-3.1846037 -0.19973165 6.839142 
-3.3242466 -0.2568048 7.1390343 
-3.476698 -0.31911272 7.466433 
-3.55829 -0.3783184 7.6416574 
-3.643804 -0.44036978 7.825304 
-3.7335293 -0.5054771 8.017995 
-3.827785 -0.57387173 8.220415 
-3.827785 -0.6295052 8.220415 
-3.9269228 -0.70288354 8.43332 
-4.1414466 -0.8014737 8.894024 
-4.2577443 -0.88586277 9.143781 
-4.7965174 -1.0676726 10.300831 
-4.7965174 -1.1373858 10.300831 
-4.7965174 -1.2070991 10.300831 
-0.0 -0.0 0.0 
-0.0 -0.0 0.0 
-0.0 -0.0 0.0 
-0.0 -0.0 0.0 
-0.0 -0.0 0.0 
-0.0 -0.0 0.0 
-0.0 -0.0 0.0 
-0.0 -0.0 0.0 
-0.0 -0.0 0.0 
-0.0 -0.0 0.0 
-0.0 -0.0 0.0 
-2.9958332 -1.2764379 6.433745 
-2.9958332 -1.3199797 6.433745 
-3.0562198 -1.3910059 6.5634294 
-2.0597708 -0.9674196 4.4234905 
-2.0597708 -0.9973566 4.4234905 
-2.0321639 -1.0135249 4.364203 
-2.0597708 -1.0572306 4.4234905 
-2.0597708 -1.0871675 4.4234905 
-2.0597708 -1.1171045 4.4234905 
-2.0597708 -1.1470414 4.4234905 
-2.0321639 -1.1612035 4.364203 
-1.9791121 -1.1596538 4.250271 
-1.9536117 -1.173106 4.195507 
-1.9791121 -1.2171831 4.250271 
-1.9791121 -1.2459477 4.250271 
-1.9536117 -1.258288 4.195507 
-1.9791121 -1.303477 4.250271 
-1.9791121 -1.3322418 4.250271 
-1.9287598 -1.3263799 4.142136 
-1.9536117 -1.3718642 4.195507 
-1.9791121 -1.4185357 4.250271 
-1.9791121 -1.4473004 4.250271 
-1.9791121 -1.476065 4.250271 
-1.9791121 -1.5048298 4.250271 
-1.9791121 -1.5335944 4.250271 
-0.0 -0.0 0.0 
-1.4633734 -1.1764913 3.1426888 
-1.4356608 -1.1750777 3.0831742 
-0.0 -0.0 0.0 
-0.0 -0.0 0.0 
-1.1867311 1.0317813 2.512263 
-1.2053304 1.0306833 2.551637 
-1.1959584 1.0055349 2.531797 
-1.2148503 1.0040135 2.5717902 
-1.2245219 0.99446285 2.5922647 
-1.2245219 0.9769191 2.5922647 
-1.2443345 0.9748979 2.634207 
-1.2647986 0.9728102 2.6775289 
-1.2752852 0.9626049 2.6997287 
-1.2967889 0.9602571 2.7452512 
-1.3190303 0.9578288 2.7923353 
-1.3304396 0.9470526 2.8164883 
-1.3304396 0.9279914 2.8164883 
-1.3538606 0.9249309 2.8660696 
-1.3658831 0.9135754 2.8915207 
-1.3905802 0.91017133 2.9438035 
-1.4161869 0.9066419 2.998012 
-1.4293472 0.89458877 3.0258718 
-1.4427544 0.8823096 3.0542543 
-1.4845287 0.8865876 3.1426888 
-1.4845287 0.8653188 3.1426888 
-1.5137486 0.86066335 3.2045462 
-1.5287943 0.8473147 3.2363973 
-1.5287943 0.8254117 3.2363973 
-1.544142 0.8115751 3.2688878 
-1.559801 0.79745793 3.3020372 
-1.6087432 0.7994315 3.405646 
-1.6087432 0.776383 3.405646 
-1.6257471 0.761297 3.4416425 
-1.6431141 0.74588865 3.4784079 
-1.6975155 0.74626374 3.5935736 
-1.7358296 0.73823816 3.6746829 
-1.775913 0.7298419 3.759538 
-1.8178915 0.7210487 3.8484046 
-1.8178915 0.69500375 3.8484046 
-1.8396338 0.6769597 3.8944323 
-1.8396338 0.65060323 3.8944323 
-1.9080974 0.6474787 4.039367 
-1.9320655 0.6279311 4.0901065 
-1.956643 0.6078861 4.142136 
-1.9818541 0.5873246 4.195507 
-2.007723 0.56622624 4.250271 
-2.0342767 0.5445699 4.3064837 
-2.0342767 0.5154248 4.3064837 
-2.1183252 0.5063709 4.4844112 
-2.1183252 0.47602165 4.4844112 
-2.1479063 0.45189592 4.5470333 
-2.1479063 0.42112285 4.5470333 
-2.2096183 0.40156502 4.6776752 
-2.309135 0.38656765 4.8883476 
-2.3806133 0.36442664 5.0396647 
-2.4180381 0.33551243 5.1188917 
-2.4566581 0.30567455 5.200649 
-2.5377219 0.2794031 5.372257 
-2.5377219 0.24304512 5.372257 
-2.5802937 0.21015446 5.46238 
-2.624318 0.17614144 5.5555778 
-2.7170324 0.14343739 5.7518506 
-2.7658906 0.10638977 5.8552814 
-2.816538 0.067985356 5.9625 
-2.8690748 0.028148223 6.0737185 
-3.0391424 -0.013725081 6.433745 
-3.100402 -0.058421224 6.5634294 
-3.100402 -0.102840714 6.5634294 
-3.1641824 -0.15028958 6.6984496 
-3.2306418 -0.19973165 6.839142 
-3.3723037 -0.2568048 7.1390343 
-3.526959 -0.31911272 7.466433 
-3.526959 -0.3696435 7.466433 
-3.526959 -0.42017427 7.466433 
-3.6964805 -0.4933293 7.825304 
-3.8831213 -0.57387173 8.220415 
-3.787503 -0.61400425 8.017995 
-4.0896115 -0.7215719 8.657547 
-4.2013173 -0.8014737 8.894024 
-4.2013173 -0.86166596 8.894024 
-4.8658586 -1.0676726 10.300831 
-4.8658586 -1.1373858 10.300831 
-4.7166476 -1.1700835 9.984958 
-5.1945148 -1.3630524 10.996583 
-0.0 -0.0 0.0 
-0.0 -0.0 0.0 
-0.0 -0.0 0.0 
-0.0 -0.0 0.0 
-0.0 -0.0 0.0 
-0.0 -0.0 0.0 
-0.0 -0.0 0.0 
-0.0 -0.0 0.0 
-0.0 -0.0 0.0 
-0.0 -0.0 0.0 
-2.9802563 -1.2517058 6.3090854 
-3.0391424 -1.3199797 6.433745 
-3.0391424 -1.3635215 6.433745 
-2.0342767 -0.9418302 4.3064837 
-2.0342767 -0.9709753 4.3064837 
-2.0342767 -1.0001204 4.3064837 
-2.0342767 -1.0292655 4.3064837 
-2.0342767 -1.0584106 4.3064837 
-2.0342767 -1.0875558 4.3064837 
-2.0342767 -1.1167008 4.3064837 
-2.0342767 -1.1458459 4.3064837 
-2.007723 -1.1596538 4.250271 
-2.007723 -1.1884184 4.250271 
-2.007723 -1.2171831 4.250271 
-2.007723 -1.2459477 4.250271 
-1.9818541 -1.258288 4.195507 
-1.956643 -1.2703142 4.142136 
-1.9818541 -1.3150761 4.195507 
-1.9818541 -1.3434701 4.195507 
-1.9818541 -1.3718642 4.195507 
-1.9818541 -1.4002582 4.195507 
-2.0342767 -1.466442 4.3064837 
-1.956643 -1.4385113 4.142136 
-1.9818541 -1.4854404 4.195507 
-1.9818541 -1.5138344 4.195507 
-0.0 -0.0 0.0 
-0.0 -0.0 0.0 
-1.4564154 -1.1750777 3.0831742 
-1.4293472 -1.1737164 3.0258718 
-0.0 -0.0 0.0 
-1.2130014 1.0398039 2.531797 
-1.2130014 1.0226693 2.531797 
-1.2225069 1.0134145 2.551637 
-1.2519387 1.0201279 2.6130674 
-1.241972 0.99446285 2.5922647 
-1.241972 0.9769191 2.5922647 
-1.2828226 0.990931 2.6775289 
-1.2828226 0.9728102 2.6775289 
-1.2934587 0.9626049 2.6997287 
-1.3264521 0.9684218 2.768593 
-1.3264521 0.94968474 2.768593 
-1.3378271 0.93893105 2.7923353 
-1.349399 0.9279914 2.8164883 
-1.3731537 0.9249309 2.8660696 
-1.3731537 0.90553415 2.8660696 
-1.4103966 0.91017133 2.9438035 
-1.4232639 0.8983704 2.9706604 
-1.4363683 0.8863522 2.998012 
-1.4497161 0.8741105 3.0258718 
-1.4633143 0.86163926 3.0542543 
-1.4912907 0.85704696 3.112647 
-1.5203577 0.8522757 3.1733162 
-1.5505803 0.8473147 3.2363973 
-1.5505803 0.8254117 3.2363973 
-1.5505803 0.8035086 3.2363973 
-1.5661467 0.78945214 3.2688878 
-1.5820289 0.77511066 3.3020372 
-1.6147794 0.7683468 3.3703947 
-1.6489147 0.761297 3.4416425 
-1.6845243 0.75394267 3.5159674 
-1.6845243 0.7301476 3.5159674 
-1.7409191 0.72999984 3.6336756 
-1.7806613 0.7215114 3.7166262 
-1.8012207 0.7043984 3.759538 
-1.8222603 0.6868856 3.8034523 
-1.8222603 0.66114485 3.8034523 
-1.8437973 0.6429139 3.8484046 
-1.8658495 0.6242468 3.8944323 
-1.9115752 0.6125426 3.9898717 
-1.9352888 0.5928041 4.039367 
-1.9595983 0.57256967 4.0901065 
-1.984526 0.5518204 4.142136 
-2.0100965 0.53053653 4.195507 
-2.036334 0.5086969 4.250271 
-2.063266 0.4862797 4.3064837 
-2.119325 0.4695549 4.4234905 
-2.1485124 0.4456724 4.4844112 
-2.1485124 0.41532314 4.4844112 
-2.2093675 0.395878 4.611429 
-2.2737708 0.37529922 4.7458525 
-2.3420413 0.35348466 4.8883476 
-2.3777373 0.32528505 4.962853 
-2.4524965 0.30086917 5.1188917 
-2.4916668 0.27047798 5.200649 
-2.532109 0.23910028 5.2850604 
-2.5738857 0.20668717 5.372257 
-2.617064 0.17318657 5.46238 
-2.6617157 0.13854282 5.5555778 
-2.7079175 0.10269637 5.652011 
-2.7557514 0.0655835 5.7518506 
-2.8053057 0.02713589 5.8552814 
-2.9099605 -0.012957038 6.0737185 
-2.9652717 -0.05508989 6.189165 
-3.0824516 -0.10080872 6.433745 
-3.1445844 -0.1472602 6.5634294 
-3.1445844 -0.19167969 6.5634294 
-3.2092736 -0.24095611 6.6984496 
-3.2766802 -0.29230252 6.839142 
-3.5772197 -0.3696435 7.466433 
-3.4970322 -0.41075557 7.299064 
-3.661171 -0.48175168 7.6416574 
-3.7491572 -0.5462888 7.825304 
-3.7491572 -0.5992483 7.825304 
-3.8414767 -0.66826785 8.017995 
-0.0 -0.0 0.0 
-0.0 -0.0 0.0 
-4.3808484 -0.9477454 9.143781 
-4.6415305 -1.0697057 9.6878805 
