ply
format ascii 1.0
comment this is my Proccessing file
element vertex 1670
property float x
property float y
property float z
end_header
-396.93414 954.485 -2487.0 
-410.94354 954.485 -2487.0 
-424.95294 954.485 -2487.0 
-442.1396 961.39325 -2505.0 
-452.97195 954.485 -2487.0 
-463.6015 947.5769 -2469.0 
-477.5095 947.5769 -2469.0 
-491.41754 947.5769 -2469.0 
-505.3257 947.5769 -2469.0 
-519.23376 947.5769 -2469.0 
-533.1417 947.5769 -2469.0 
-547.04974 947.5769 -2469.0 
-560.95776 947.5769 -2469.0 
-574.8659 947.5769 -2469.0 
-584.4815 940.66864 -2451.0 
-598.28815 940.66864 -2451.0 
-612.0948 940.66864 -2451.0 
-621.5601 934.1442 -2434.0 
-635.27124 934.1442 -2434.0 
-648.98206 934.1442 -2434.0 
-662.69293 934.1442 -2434.0 
-676.4038 934.1442 -2434.0 
-690.11456 934.1442 -2434.0 
-703.8257 934.1442 -2434.0 
-717.5365 934.1442 -2434.0 
-726.14 927.61975 -2417.0 
-734.55206 921.09534 -2400.0 
-748.07135 921.09534 -2400.0 
-772.3801 934.1442 -2434.0 
-780.6006 927.61975 -2417.0 
-794.21564 927.61975 -2417.0 
-802.1489 921.09534 -2400.0 
-810.23035 914.9547 -2384.0 
-817.7864 908.4303 -2367.0 
-837.0889 914.9547 -2384.0 
-844.45325 908.4303 -2367.0 
-857.7867 908.4303 -2367.0 
-871.1201 908.4303 -2367.0 
-884.45374 908.4303 -2367.0 
-897.7872 908.4303 -2367.0 
-911.1206 908.4303 -2367.0 
-918.2051 902.2897 -2351.0 
-925.1093 896.149 -2335.0 
-938.2627 896.149 -2335.0 
-938.7846 884.2515 -2304.0 
-958.3727 890.39215 -2320.0 
-984.42175 902.2897 -2351.0 
-997.66516 902.2897 -2351.0 
-1010.90857 902.2897 -2351.0 
-1017.1819 896.149 -2335.0 
-1030.3351 896.149 -2335.0 
-1050.6385 902.2897 -2351.0 
-1063.8818 902.2897 -2351.0 
-1077.1252 902.2897 -2351.0 
-1075.9911 890.39215 -2320.0 
-1096.1012 896.149 -2335.0 
-1102.1285 890.39215 -2320.0 
3237.7617 2180.7664 -5767.0 
3205.276 2180.7664 -5767.0 
3172.7898 2180.7664 -5767.0 
3140.304 2180.7664 -5767.0 
3107.818 2180.7664 -5767.0 
3075.332 2180.7664 -5767.0 
2765.8403 1982.24 -5242.0 
2736.3115 1982.24 -5242.0 
2706.7832 1982.24 -5242.0 
2718.1133 2012.4916 -5322.0 
2730.562 2044.2559 -5406.0 
2700.1099 2044.2559 -5406.0 
2639.205 2044.2559 -5406.0 
2649.771 2076.3982 -5491.0 
2661.2866 2110.0532 -5580.0 
2629.8542 2110.0532 -5580.0 
2556.9773 2076.3982 -5491.0 
2609.3123 2144.8425 -5672.0 
2620.5298 2180.7664 -5767.0 
2523.0718 2180.7664 -5767.0 
2490.586 2180.7664 -5767.0 
2458.1 2180.7664 -5767.0 
2466.4124 2217.4468 -5864.0 
2393.1282 2180.7664 -5767.0 
2360.6423 2180.7664 -5767.0 
2301.251 2217.4468 -5864.0 
2268.2188 2217.4468 -5864.0 
2235.1863 2217.4468 -5864.0 
2240.459 2256.0176 -5966.0 
2169.1218 2217.4468 -5864.0 
2173.245 2256.0176 -5966.0 
2103.0571 2217.4468 -5864.0 
2070.0247 2217.4468 -5864.0 
2036.9926 2217.4468 -5864.0 
2074.7004 2295.723 -6071.0 
2005.2107 2256.0176 -5966.0 
1937.8955 2217.4468 -5864.0 
1904.8632 2217.4468 -5864.0 
1871.8309 2217.4468 -5864.0 
1838.7987 2217.4468 -5864.0 
1805.7664 2217.4468 -5864.0 
1772.734 2217.4468 -5864.0 
1739.7017 2217.4468 -5864.0 
1706.6694 2217.4468 -5864.0 
1673.6372 2217.4468 -5864.0 
1640.6049 2217.4468 -5864.0 
1607.5725 2217.4468 -5864.0 
1574.54 2217.4468 -5864.0 
1516.0088 2180.7664 -5767.0 
1508.4756 2217.4468 -5864.0 
1475.4432 2217.4468 -5864.0 
1442.4109 2217.4468 -5864.0 
1409.3785 2217.4468 -5864.0 
1376.3463 2217.4468 -5864.0 
1343.3141 2217.4468 -5864.0 
1310.2817 2217.4468 -5864.0 
1277.2494 2217.4468 -5864.0 
1244.2169 2217.4468 -5864.0 
1211.1847 2217.4468 -5864.0 
1178.1525 2217.4468 -5864.0 
1145.1201 2217.4468 -5864.0 
1112.0879 2217.4468 -5864.0 
1079.0554 2217.4468 -5864.0 
1046.0232 2217.4468 -5864.0 
1012.99097 2217.4468 -5864.0 
979.9585 2217.4468 -5864.0 
946.9263 2217.4468 -5864.0 
898.77655 2180.7664 -5767.0 
866.2908 2180.7664 -5767.0 
833.805 2180.7664 -5767.0 
801.3189 2180.7664 -5767.0 
768.8331 2180.7664 -5767.0 
736.34705 2180.7664 -5767.0 
703.86127 2180.7664 -5767.0 
682.66785 2217.4468 -5864.0 
649.63544 2217.4468 -5864.0 
616.6032 2217.4468 -5864.0 
583.57074 2217.4468 -5864.0 
345.40097 1391.1981 -3679.0 
324.67694 1391.1981 -3679.0 
307.17493 1405.9459 -3718.0 
286.23123 1405.9459 -3718.0 
262.50467 1391.1981 -3679.0 
239.21762 1376.4506 -3640.0 
221.05667 1391.1981 -3679.0 
200.33253 1391.1981 -3679.0 
126.882996 982.8007 -2599.0 
113.10634 990.36365 -2619.0 
96.88877 975.616 -2580.0 
81.71708 968.0531 -2560.0 
66.82319 961.2465 -2542.0 
53.28884 975.616 -2580.0 
38.75547 975.616 -2580.0 
24.400574 982.8007 -2599.0 
9.688913 975.616 -2580.0 
-4.8443646 975.616 -2580.0 
-19.227612 968.0531 -2560.0 
-33.64823 968.0531 -2560.0 
-48.068848 968.0531 -2560.0 
-62.977665 975.616 -2580.0 
-76.91008 968.0531 -2560.0 
-91.33089 968.0531 -2560.0 
-105.7515 968.0531 -2560.0 
-120.17212 968.0531 -2560.0 
-134.59274 968.0531 -2560.0 
-149.01335 968.0531 -2560.0 
-162.285 961.2465 -2542.0 
-176.60423 961.2465 -2542.0 
-190.92346 961.2465 -2542.0 
-205.24268 961.2465 -2542.0 
-217.92079 954.0617 -2523.0 
-230.47705 947.2551 -2505.0 
-246.34537 954.0617 -2523.0 
-260.55756 954.0617 -2523.0 
-274.76978 954.0617 -2523.0 
-288.98193 954.0617 -2523.0 
-305.4776 961.2465 -2542.0 
-317.40652 954.0617 -2523.0 
-329.25284 947.2551 -2505.0 
-343.36362 947.2551 -2505.0 
-357.47443 947.2551 -2505.0 
-368.91534 940.4485 -2487.0 
-382.92474 940.4485 -2487.0 
-399.807 947.2551 -2505.0 
-410.94354 940.4485 -2487.0 
-424.95294 940.4485 -2487.0 
-438.96255 940.4485 -2487.0 
-452.97195 940.4485 -2487.0 
-466.98135 940.4485 -2487.0 
-477.5095 933.6418 -2469.0 
-491.41754 933.6418 -2469.0 
-505.3257 933.6418 -2469.0 
-519.23376 933.6418 -2469.0 
-533.1417 933.6418 -2469.0 
-547.04974 933.6418 -2469.0 
-560.95776 933.6418 -2469.0 
-574.8659 933.6418 -2469.0 
-584.4815 926.8352 -2451.0 
-594.1385 920.40674 -2434.0 
-607.8493 920.40674 -2434.0 
-621.5601 920.40674 -2434.0 
-639.7081 926.8352 -2451.0 
-653.51483 926.8352 -2451.0 
-662.69293 920.40674 -2434.0 
-676.4038 920.40674 -2434.0 
-690.11456 920.40674 -2434.0 
-703.8257 920.40674 -2434.0 
-712.52496 913.9783 -2417.0 
-726.14 913.9783 -2417.0 
-739.7551 913.9783 -2417.0 
-748.07135 907.5498 -2400.0 
-766.9855 913.9783 -2417.0 
-780.6006 913.9783 -2417.0 
-788.6295 907.5498 -2400.0 
-802.1489 907.5498 -2400.0 
-810.23035 901.49945 -2384.0 
-817.7864 895.071 -2367.0 
-831.1198 895.071 -2367.0 
-844.45325 895.071 -2367.0 
-857.7867 895.071 -2367.0 
-871.1201 895.071 -2367.0 
-890.80597 901.49945 -2384.0 
-897.7872 895.071 -2367.0 
-904.9618 889.0206 -2351.0 
-918.2051 889.0206 -2351.0 
-925.1093 882.97034 -2335.0 
-944.69183 889.0206 -2351.0 
-957.9352 889.0206 -2351.0 
-958.3727 877.29816 -2320.0 
-971.44135 877.29816 -2320.0 
-990.87537 882.97034 -2335.0 
-1010.90857 889.0206 -2351.0 
-1017.1819 882.97034 -2335.0 
-1030.3351 882.97034 -2335.0 
-1050.6385 889.0206 -2351.0 
-1071.1222 895.071 -2367.0 
-1077.1252 889.0206 -2351.0 
-1082.948 882.97034 -2335.0 
-1096.1012 882.97034 -2335.0 
3237.7617 2148.2178 -5767.0 
3205.276 2148.2178 -5767.0 
3120.5244 2112.83 -5672.0 
3140.304 2148.2178 -5767.0 
3056.623 2112.83 -5672.0 
3024.672 2112.83 -5672.0 
2852.3718 2013.7445 -5406.0 
2866.289 2045.4071 -5491.0 
2835.358 2045.4071 -5491.0 
2804.4268 2045.4071 -5491.0 
2773.4954 2045.4071 -5491.0 
2742.5645 2045.4071 -5491.0 
2755.5842 2078.56 -5580.0 
2724.1516 2078.56 -5580.0 
2692.7192 2078.56 -5580.0 
2618.8394 2045.4071 -5491.0 
2673.2139 2112.83 -5672.0 
2685.5012 2148.2178 -5767.0 
2653.0154 2148.2178 -5767.0 
2664.6064 2184.3503 -5864.0 
2631.574 2184.3503 -5864.0 
2656.0723 2261.4583 -6071.0 
2576.5278 2222.3455 -5966.0 
2499.4448 2184.3503 -5864.0 
2466.4124 2184.3503 -5864.0 
2475.7073 2222.3455 -5966.0 
2400.348 2184.3503 -5864.0 
2408.4934 2222.3455 -5966.0 
2348.287 2261.4583 -6071.0 
2314.0886 2261.4583 -6071.0 
2320.4485 2301.6885 -6179.0 
2245.6921 2261.4583 -6071.0 
2211.4937 2261.4583 -6071.0 
2139.6384 2222.3455 -5966.0 
2143.097 2261.4583 -6071.0 
2072.4246 2222.3455 -5966.0 
2111.6082 2301.6885 -6179.0 
2005.2107 2222.3455 -5966.0 
1971.6039 2222.3455 -5966.0 
1972.1051 2261.4583 -6071.0 
1904.3901 2222.3455 -5966.0 
1838.7987 2184.3503 -5864.0 
1902.7677 2301.6885 -6179.0 
1867.9612 2301.6885 -6179.0 
1769.9625 2222.3455 -5966.0 
1706.6694 2184.3503 -5864.0 
1702.7489 2222.3455 -5966.0 
1669.1418 2222.3455 -5966.0 
1664.3201 2261.4583 -6071.0 
1601.9281 2222.3455 -5966.0 
1595.9233 2261.4583 -6071.0 
1589.5073 2301.6885 -6179.0 
1501.1074 2222.3455 -5966.0 
1442.4109 2184.3503 -5864.0 
1433.8937 2222.3455 -5966.0 
1376.3463 2184.3503 -5864.0 
1366.68 2222.3455 -5966.0 
1333.073 2222.3455 -5966.0 
1277.2494 2184.3503 -5864.0 
1265.8593 2222.3455 -5966.0 
1211.1847 2184.3503 -5864.0 
1178.1525 2184.3503 -5864.0 
1145.1201 2184.3503 -5864.0 
1131.4318 2222.3455 -5966.0 
1079.0554 2184.3503 -5864.0 
1046.0232 2184.3503 -5864.0 
1012.99097 2184.3503 -5864.0 
979.9585 2184.3503 -5864.0 
946.9263 2184.3503 -5864.0 
913.89386 2184.3503 -5864.0 
880.86163 2184.3503 -5864.0 
847.8294 2184.3503 -5864.0 
814.797 2184.3503 -5864.0 
781.7648 2184.3503 -5864.0 
748.7323 2184.3503 -5864.0 
715.7001 2184.3503 -5864.0 
694.54236 2222.3455 -5966.0 
660.93536 2222.3455 -5966.0 
627.32855 2222.3455 -5966.0 
593.7215 2222.3455 -5966.0 
345.40097 1370.4341 -3679.0 
324.67694 1370.4341 -3679.0 
307.17493 1384.9615 -3718.0 
286.23123 1384.9615 -3718.0 
262.50467 1370.4341 -3679.0 
241.78067 1370.4341 -3679.0 
221.05667 1370.4341 -3679.0 
202.45619 1384.9615 -3718.0 
125.95542 961.0546 -2580.0 
112.24261 968.13214 -2599.0 
96.137695 953.60455 -2560.0 
81.1425 946.8995 -2542.0 
66.82319 946.8995 -2542.0 
53.28884 961.0546 -2580.0 
39.04088 968.13214 -2599.0 
24.400574 968.13214 -2599.0 
9.760267 968.13214 -2599.0 
-4.8443646 961.0546 -2580.0 
-19.377827 961.0546 -2580.0 
-33.64823 953.60455 -2560.0 
-48.068848 953.60455 -2560.0 
-62.489464 953.60455 -2560.0 
-76.91008 953.60455 -2560.0 
-91.33089 953.60455 -2560.0 
-105.7515 953.60455 -2560.0 
-120.17212 953.60455 -2560.0 
-134.59274 953.60455 -2560.0 
-149.01335 953.60455 -2560.0 
-162.285 946.8995 -2542.0 
-176.60423 946.8995 -2542.0 
-190.92346 946.8995 -2542.0 
-206.69601 953.60455 -2560.0 
-217.92079 939.82196 -2523.0 
-230.47705 933.11694 -2505.0 
-248.20053 946.8995 -2542.0 
-260.55756 939.82196 -2523.0 
-272.80945 933.11694 -2505.0 
-286.92026 933.11694 -2505.0 
-305.4776 946.8995 -2542.0 
-317.40652 939.82196 -2523.0 
-329.25284 933.11694 -2505.0 
-343.36362 933.11694 -2505.0 
-357.47443 933.11694 -2505.0 
-371.58542 933.11694 -2505.0 
-385.6962 933.11694 -2505.0 
-399.807 933.11694 -2505.0 
-410.94354 926.41187 -2487.0 
-424.95294 926.41187 -2487.0 
-438.96255 926.41187 -2487.0 
-452.97195 926.41187 -2487.0 
-466.98135 926.41187 -2487.0 
-480.99075 926.41187 -2487.0 
-495.00012 926.41187 -2487.0 
-509.00977 926.41187 -2487.0 
-523.01917 926.41187 -2487.0 
-533.1417 919.70685 -2469.0 
-543.0615 913.00183 -2451.0 
-556.8681 913.00183 -2451.0 
-570.6749 913.00183 -2451.0 
-580.4276 906.6693 -2434.0 
-594.1385 906.6693 -2434.0 
-607.8493 906.6693 -2434.0 
-621.5601 906.6693 -2434.0 
-639.7081 913.00183 -2451.0 
-653.51483 913.00183 -2451.0 
-662.69293 906.6693 -2434.0 
-676.4038 906.6693 -2434.0 
-690.11456 906.6693 -2434.0 
-703.8257 906.6693 -2434.0 
-717.5365 906.6693 -2434.0 
-731.2473 906.6693 -2434.0 
-739.7551 900.33685 -2417.0 
-748.07135 894.0043 -2400.0 
-761.5909 894.0043 -2400.0 
-780.6006 900.33685 -2417.0 
-794.21564 900.33685 -2417.0 
-802.1489 894.0043 -2400.0 
-815.6682 894.0043 -2400.0 
-829.1877 894.0043 -2400.0 
-837.0889 888.0442 -2384.0 
-844.45325 881.71173 -2367.0 
-857.7867 881.71173 -2367.0 
-871.1201 881.71173 -2367.0 
-884.45374 881.71173 -2367.0 
-891.7185 875.75165 -2351.0 
-898.803 869.7917 -2335.0 
-911.9562 869.7917 -2335.0 
-931.4484 875.75165 -2351.0 
-944.69183 875.75165 -2351.0 
-957.9352 875.75165 -2351.0 
-958.3727 864.20416 -2320.0 
-964.74176 858.2441 -2304.0 
-984.51 864.20416 -2320.0 
-1010.90857 875.75165 -2351.0 
-1024.152 875.75165 -2351.0 
-1037.3953 875.75165 -2351.0 
-1050.6385 875.75165 -2351.0 
-1063.8818 875.75165 -2351.0 
-1077.1252 875.75165 -2351.0 
-1090.3687 875.75165 -2351.0 
-1096.1012 869.7917 -2335.0 
-1094.5276 858.2441 -2304.0 
3292.2202 2151.2542 -5864.0 
3205.276 2115.669 -5767.0 
3226.1558 2151.2542 -5864.0 
3140.304 2115.669 -5767.0 
3107.818 2115.669 -5767.0 
3024.672 2080.8176 -5672.0 
2992.7214 2080.8176 -5672.0 
2866.289 2014.4163 -5491.0 
2835.358 2014.4163 -5491.0 
2849.8818 2047.0667 -5580.0 
2864.9182 2080.8176 -5672.0 
2832.9675 2080.8176 -5672.0 
2801.0166 2080.8176 -5672.0 
2769.0662 2080.8176 -5672.0 
2782.9592 2115.669 -5767.0 
2750.4731 2115.669 -5767.0 
2763.7036 2151.2542 -5864.0 
2730.6711 2151.2542 -5864.0 
2744.5623 2188.6738 -5966.0 
2710.9553 2188.6738 -5966.0 
2631.574 2151.2542 -5864.0 
2576.5278 2188.6738 -5966.0 
2633.7092 2266.8145 -6179.0 
2553.477 2227.1938 -6071.0 
2519.279 2227.1938 -6071.0 
2485.0806 2227.1938 -6071.0 
2450.8823 2227.1938 -6071.0 
2469.214 2308.2693 -6292.0 
2390.062 2266.8145 -6179.0 
2314.0886 2227.1938 -6071.0 
2362.8843 2308.2693 -6292.0 
2327.4412 2308.2693 -6292.0 
2250.835 2266.8145 -6179.0 
2256.5544 2308.2693 -6292.0 
2221.111 2308.2693 -6292.0 
2146.4148 2266.8145 -6179.0 
2111.6082 2266.8145 -6179.0 
2040.502 2227.1938 -6071.0 
2006.3036 2227.1938 -6071.0 
2007.1879 2266.8145 -6179.0 
2008.4517 2308.2693 -6292.0 
1870.7833 2188.6738 -5966.0 
1869.5101 2227.1938 -6071.0 
1835.3118 2227.1938 -6071.0 
1866.6785 2308.2693 -6292.0 
1736.3557 2188.6738 -5966.0 
1732.7168 2227.1938 -6071.0 
1698.5183 2227.1938 -6071.0 
1693.9275 2266.8145 -6179.0 
1659.1206 2266.8145 -6179.0 
1595.9233 2227.1938 -6071.0 
1589.5073 2266.8145 -6179.0 
1527.5266 2227.1938 -6071.0 
1467.5006 2188.6738 -5966.0 
1459.1298 2227.1938 -6071.0 
1424.9315 2227.1938 -6071.0 
1415.4736 2266.8145 -6179.0 
1380.6667 2266.8145 -6179.0 
1322.3364 2227.1938 -6071.0 
1265.8593 2188.6738 -5966.0 
1232.2524 2188.6738 -5966.0 
1178.1525 2151.2542 -5864.0 
1165.0386 2188.6738 -5966.0 
1131.4318 2188.6738 -5966.0 
1097.8248 2188.6738 -5966.0 
1064.218 2188.6738 -5966.0 
1030.6112 2188.6738 -5966.0 
997.0042 2188.6738 -5966.0 
963.3974 2188.6738 -5966.0 
929.7904 2188.6738 -5966.0 
896.1836 2188.6738 -5966.0 
847.8294 2151.2542 -5864.0 
814.797 2151.2542 -5864.0 
781.7648 2151.2542 -5864.0 
761.756 2188.6738 -5966.0 
740.9644 2227.1938 -6071.0 
706.7661 2227.1938 -6071.0 
660.93536 2188.6738 -5966.0 
627.32855 2188.6738 -5966.0 
593.7215 2188.6738 -5966.0 
345.40097 1349.6699 -3679.0 
328.11877 1363.9774 -3718.0 
307.17493 1363.9774 -3718.0 
286.23123 1363.9774 -3718.0 
262.50467 1349.6699 -3679.0 
241.78067 1349.6699 -3679.0 
153.82034 939.156 -2560.0 
140.4887 946.49316 -2580.0 
125.95542 946.49316 -2580.0 
110.55831 939.156 -2560.0 
96.137695 939.156 -2560.0 
81.1425 932.55255 -2542.0 
66.82319 932.55255 -2542.0 
53.28884 946.49316 -2580.0 
39.04088 953.46344 -2599.0 
24.400574 953.46344 -2599.0 
9.760267 953.46344 -2599.0 
-4.8443646 946.49316 -2580.0 
-19.227612 939.156 -2560.0 
-33.64823 939.156 -2560.0 
-48.068848 939.156 -2560.0 
-62.489464 939.156 -2560.0 
-76.91008 939.156 -2560.0 
-91.33089 939.156 -2560.0 
-105.7515 939.156 -2560.0 
-120.17212 939.156 -2560.0 
-134.59274 939.156 -2560.0 
-149.01335 939.156 -2560.0 
-162.285 932.55255 -2542.0 
-176.60423 932.55255 -2542.0 
-190.92346 932.55255 -2542.0 
-205.24268 932.55255 -2542.0 
-217.92079 925.5823 -2523.0 
-232.13318 925.5823 -2523.0 
-246.34537 925.5823 -2523.0 
-260.55756 925.5823 -2523.0 
-272.80945 918.9788 -2505.0 
-286.92026 918.9788 -2505.0 
-301.03122 918.9788 -2505.0 
-317.40652 925.5823 -2523.0 
-329.25284 918.9788 -2505.0 
-343.36362 918.9788 -2505.0 
-357.47443 918.9788 -2505.0 
-371.58542 918.9788 -2505.0 
-385.6962 918.9788 -2505.0 
-399.807 918.9788 -2505.0 
-413.91782 918.9788 -2505.0 
-424.95294 912.37537 -2487.0 
-438.96255 912.37537 -2487.0 
-452.97195 912.37537 -2487.0 
-466.98135 912.37537 -2487.0 
-480.99075 912.37537 -2487.0 
-495.00012 912.37537 -2487.0 
-509.00977 912.37537 -2487.0 
-523.01917 912.37537 -2487.0 
-533.1417 905.772 -2469.0 
-543.0615 899.1685 -2451.0 
-556.8681 899.1685 -2451.0 
-570.6749 899.1685 -2451.0 
-584.4815 899.1685 -2451.0 
-594.1385 892.93195 -2434.0 
-607.8493 892.93195 -2434.0 
-621.5601 892.93195 -2434.0 
-635.27124 892.93195 -2434.0 
-653.51483 899.1685 -2451.0 
-662.69293 892.93195 -2434.0 
-676.4038 892.93195 -2434.0 
-690.11456 892.93195 -2434.0 
-703.8257 892.93195 -2434.0 
-717.5365 892.93195 -2434.0 
-726.14 886.6954 -2417.0 
-739.7551 886.6954 -2417.0 
-753.3702 886.6954 -2417.0 
-766.9855 886.6954 -2417.0 
-780.6006 886.6954 -2417.0 
-794.21564 886.6954 -2417.0 
-807.83075 886.6954 -2417.0 
-815.6682 880.45874 -2400.0 
-829.1877 880.45874 -2400.0 
-837.0889 874.58905 -2384.0 
-850.5182 874.58905 -2384.0 
-857.7867 868.3525 -2367.0 
-871.1201 868.3525 -2367.0 
-884.45374 868.3525 -2367.0 
-897.7872 868.3525 -2367.0 
-904.9618 862.4827 -2351.0 
-918.2051 862.4827 -2351.0 
-931.4484 862.4827 -2351.0 
-944.69183 862.4827 -2351.0 
-957.9352 862.4827 -2351.0 
-964.56903 856.613 -2335.0 
-971.44135 851.1101 -2320.0 
-990.87537 856.613 -2335.0 
-1010.90857 862.4827 -2351.0 
-1024.152 862.4827 -2351.0 
-1037.3953 862.4827 -2351.0 
-1050.6385 862.4827 -2351.0 
-1063.8818 862.4827 -2351.0 
-1077.1252 862.4827 -2351.0 
-1090.3687 862.4827 -2351.0 
-1103.6119 862.4827 -2351.0 
3469.0703 2231.9404 -6179.0 
3374.238 2192.9294 -6071.0 
3226.1558 2118.1582 -5864.0 
3193.1235 2118.1582 -5864.0 
3160.091 2118.1582 -5864.0 
3075.332 2083.1204 -5767.0 
3042.8464 2083.1204 -5767.0 
2912.7468 2015.5732 -5580.0 
2881.3142 2015.5732 -5580.0 
2849.8818 2015.5732 -5580.0 
2912.9026 2083.1204 -5767.0 
2880.4167 2083.1204 -5767.0 
2847.9307 2083.1204 -5767.0 
2862.8003 2118.1582 -5864.0 
2878.9897 2155.002 -5966.0 
2796.7356 2118.1582 -5864.0 
2811.7761 2155.002 -5966.0 
2778.169 2155.002 -5966.0 
2792.8657 2192.9294 -6071.0 
2690.271 2192.9294 -6071.0 
2656.0723 2192.9294 -6071.0 
2668.5159 2231.9404 -6179.0 
2633.7092 2231.9404 -6179.0 
2598.902 2231.9404 -6179.0 
2564.0957 2231.9404 -6179.0 
2529.2886 2231.9404 -6179.0 
2494.4822 2231.9404 -6179.0 
2504.6575 2272.7576 -6292.0 
2469.214 2272.7576 -6292.0 
2433.771 2272.7576 -6292.0 
2314.0886 2192.9294 -6071.0 
2362.8843 2272.7576 -6292.0 
2327.4412 2272.7576 -6292.0 
2334.2532 2314.6582 -6408.0 
2341.9104 2358.7266 -6530.0 
2262.0598 2314.6582 -6408.0 
2185.668 2272.7576 -6292.0 
2111.6082 2231.9404 -6179.0 
2076.8013 2231.9404 -6179.0 
2079.3381 2272.7576 -6292.0 
2043.8948 2272.7576 -6292.0 
2008.4517 2272.7576 -6292.0 
1937.5746 2231.9404 -6179.0 
1902.7677 2231.9404 -6179.0 
1902.122 2272.7576 -6292.0 
1866.6785 2272.7576 -6292.0 
1798.3477 2231.9404 -6179.0 
1763.541 2231.9404 -6179.0 
1760.3488 2272.7576 -6292.0 
1693.9275 2231.9404 -6179.0 
1659.1206 2231.9404 -6179.0 
1624.314 2231.9404 -6179.0 
1589.5073 2231.9404 -6179.0 
1554.7004 2231.9404 -6179.0 
1519.8939 2231.9404 -6179.0 
1459.1298 2192.9294 -6071.0 
1400.2869 2155.002 -5966.0 
1415.4736 2231.9404 -6179.0 
1380.6667 2231.9404 -6179.0 
1345.8602 2231.9404 -6179.0 
1311.0533 2231.9404 -6179.0 
1276.2467 2231.9404 -6179.0 
1198.6456 2155.002 -5966.0 
1185.543 2192.9294 -6071.0 
1151.3447 2192.9294 -6071.0 
1117.1462 2192.9294 -6071.0 
1082.948 2192.9294 -6071.0 
1048.7496 2192.9294 -6071.0 
1014.5512 2192.9294 -6071.0 
980.3529 2192.9294 -6071.0 
946.1545 2192.9294 -6071.0 
911.9562 2192.9294 -6071.0 
862.5768 2155.002 -5966.0 
828.9698 2155.002 -5966.0 
809.36115 2192.9294 -6071.0 
788.9524 2231.9404 -6179.0 
754.14575 2231.9404 -6179.0 
719.3391 2231.9404 -6179.0 
684.5323 2231.9404 -6179.0 
627.32855 2155.002 -5966.0 
374.08636 1357.8029 -3759.0 
352.9117 1357.8029 -3759.0 
331.73706 1357.8029 -3759.0 
307.17493 1342.9932 -3718.0 
197.08229 924.70746 -2560.0 
185.44432 938.7948 -2599.0 
170.80402 938.7948 -2599.0 
153.82034 924.70746 -2560.0 
140.4887 931.93176 -2580.0 
125.95542 931.93176 -2580.0 
111.42205 931.93176 -2580.0 
96.137695 924.70746 -2560.0 
81.71708 924.70746 -2560.0 
67.29637 924.70746 -2560.0 
53.68128 938.7948 -2599.0 
38.75547 931.93176 -2580.0 
24.400574 938.7948 -2599.0 
9.760267 938.7948 -2599.0 
-4.8443646 931.93176 -2580.0 
-19.377827 931.93176 -2580.0 
-33.64823 924.70746 -2560.0 
-48.068848 924.70746 -2560.0 
-62.489464 924.70746 -2560.0 
-76.91008 924.70746 -2560.0 
-91.33089 924.70746 -2560.0 
-105.7515 924.70746 -2560.0 
-120.17212 924.70746 -2560.0 
-134.59274 924.70746 -2560.0 
-147.9656 918.2056 -2542.0 
-163.43416 924.70746 -2560.0 
-176.60423 918.2056 -2542.0 
-192.27539 924.70746 -2560.0 
-205.24268 918.2056 -2542.0 
-219.5619 918.2056 -2542.0 
-233.8813 918.2056 -2542.0 
-248.20053 918.2056 -2542.0 
-260.55756 911.3425 -2523.0 
-272.80945 904.8407 -2505.0 
-286.92026 904.8407 -2505.0 
-301.03122 904.8407 -2505.0 
-315.14203 904.8407 -2505.0 
-329.25284 904.8407 -2505.0 
-340.89633 898.3388 -2487.0 
-357.47443 904.8407 -2505.0 
-371.58542 904.8407 -2505.0 
-385.6962 904.8407 -2505.0 
-399.807 904.8407 -2505.0 
-413.91782 904.8407 -2505.0 
-424.95294 898.3388 -2487.0 
-438.96255 898.3388 -2487.0 
-452.97195 898.3388 -2487.0 
-466.98135 898.3388 -2487.0 
-480.99075 898.3388 -2487.0 
-495.00012 898.3388 -2487.0 
-509.00977 898.3388 -2487.0 
-523.01917 898.3388 -2487.0 
-533.1417 891.83704 -2469.0 
-547.04974 891.83704 -2469.0 
-556.8681 885.33514 -2451.0 
-574.8659 891.83704 -2469.0 
-584.4815 885.33514 -2451.0 
-594.1385 879.1945 -2434.0 
-607.8493 879.1945 -2434.0 
-621.5601 879.1945 -2434.0 
-635.27124 879.1945 -2434.0 
-648.98206 879.1945 -2434.0 
-662.69293 879.1945 -2434.0 
-676.4038 879.1945 -2434.0 
-685.29456 873.0539 -2417.0 
-698.90985 873.0539 -2417.0 
-707.51337 866.91327 -2400.0 
-721.0327 866.91327 -2400.0 
-734.55206 866.91327 -2400.0 
-753.3702 873.0539 -2417.0 
-766.9855 873.0539 -2417.0 
-780.6006 873.0539 -2417.0 
-794.21564 873.0539 -2417.0 
-807.83075 873.0539 -2417.0 
-810.23035 861.13385 -2384.0 
-829.1877 866.91327 -2400.0 
-837.0889 861.13385 -2384.0 
-850.5182 861.13385 -2384.0 
-857.7867 854.99316 -2367.0 
-871.1201 854.99316 -2367.0 
-884.45374 854.99316 -2367.0 
-897.7872 854.99316 -2367.0 
-911.1206 854.99316 -2367.0 
-924.45404 854.99316 -2367.0 
-937.7875 854.99316 -2367.0 
-944.69183 849.2138 -2351.0 
-957.9352 849.2138 -2351.0 
-971.17847 849.2138 -2351.0 
-977.7222 843.4343 -2335.0 
-990.87537 843.4343 -2335.0 
-1010.90857 849.2138 -2351.0 
-1024.152 849.2138 -2351.0 
-1037.3953 849.2138 -2351.0 
-1050.6385 849.2138 -2351.0 
-1063.8818 849.2138 -2351.0 
-1077.1252 849.2138 -2351.0 
-1090.3687 849.2138 -2351.0 
-1103.6119 849.2138 -2351.0 
3469.0703 2197.0664 -6179.0 
3374.238 2158.6648 -6071.0 
3282.2722 2121.33 -5966.0 
3193.1235 2085.0618 -5864.0 
3160.091 2085.0618 -5864.0 
3075.332 2050.5715 -5767.0 
2992.7214 2016.7925 -5672.0 
2866.289 1952.4343 -5491.0 
2881.3142 1984.08 -5580.0 
2896.8691 2016.7925 -5672.0 
2961.8972 2085.0618 -5864.0 
2928.865 2085.0618 -5864.0 
2895.8328 2085.0618 -5864.0 
2912.5967 2121.33 -5966.0 
2878.9897 2121.33 -5966.0 
2796.7356 2085.0618 -5864.0 
2763.7036 2085.0618 -5864.0 
2929.9763 2237.2458 -6292.0 
2947.8972 2278.492 -6408.0 
2823.6467 2237.2458 -6292.0 
2788.2036 2237.2458 -6292.0 
2703.3223 2197.0664 -6179.0 
2717.317 2237.2458 -6292.0 
2681.8738 2237.2458 -6292.0 
2646.4304 2237.2458 -6292.0 
2564.0957 2197.0664 -6179.0 
2575.5437 2237.2458 -6292.0 
2494.4822 2197.0664 -6179.0 
2504.6575 2237.2458 -6292.0 
2514.7368 2278.492 -6408.0 
2478.6401 2278.492 -6408.0 
2442.5435 2278.492 -6408.0 
2452.2622 2321.8713 -6530.0 
2415.4785 2321.8713 -6530.0 
2334.2532 2278.492 -6408.0 
2298.1567 2278.492 -6408.0 
2262.0598 2278.492 -6408.0 
2185.668 2237.2458 -6292.0 
2111.6082 2197.0664 -6179.0 
2114.7815 2237.2458 -6292.0 
2117.673 2278.492 -6408.0 
2081.5764 2278.492 -6408.0 
2045.4797 2278.492 -6408.0 
1973.0085 2237.2458 -6292.0 
1937.5651 2237.2458 -6292.0 
1902.122 2237.2458 -6292.0 
1833.1543 2197.0664 -6179.0 
1831.2354 2237.2458 -6292.0 
1795.7922 2237.2458 -6292.0 
1760.3488 2237.2458 -6292.0 
1724.9056 2237.2458 -6292.0 
1689.4622 2237.2458 -6292.0 
1624.314 2197.0664 -6179.0 
1589.5073 2197.0664 -6179.0 
1554.7004 2197.0664 -6179.0 
1547.6893 2237.2458 -6292.0 
1485.0869 2197.0664 -6179.0 
1424.9315 2158.6648 -6071.0 
1390.7333 2158.6648 -6071.0 
1380.6667 2197.0664 -6179.0 
1345.8602 2197.0664 -6179.0 
1335.0295 2237.2458 -6292.0 
1276.2467 2197.0664 -6179.0 
1241.4401 2197.0664 -6179.0 
1206.6332 2197.0664 -6179.0 
1193.2566 2237.2458 -6292.0 
1137.0197 2197.0664 -6179.0 
1102.213 2197.0664 -6179.0 
1067.4064 2197.0664 -6179.0 
1032.5995 2197.0664 -6179.0 
997.7929 2197.0664 -6179.0 
962.986 2197.0664 -6179.0 
928.1794 2197.0664 -6179.0 
877.7579 2158.6648 -6071.0 
858.5659 2197.0664 -6179.0 
838.824 2237.2458 -6292.0 
788.9524 2197.0664 -6179.0 
767.9374 2237.2458 -6292.0 
732.49426 2237.2458 -6292.0 
697.0508 2237.2458 -6292.0 
649.72565 2197.0664 -6179.0 
626.16425 2237.2458 -6292.0 
245.88342 931.2376 -2619.0 
229.36542 924.12616 -2599.0 
214.72502 924.12616 -2599.0 
200.08473 924.12616 -2599.0 
185.44432 924.12616 -2599.0 
170.80402 924.12616 -2599.0 
155.02206 917.37036 -2580.0 
140.4887 917.37036 -2580.0 
125.95542 917.37036 -2580.0 
111.42205 917.37036 -2580.0 
96.137695 910.2589 -2560.0 
82.35549 917.37036 -2580.0 
67.82212 917.37036 -2580.0 
54.094368 931.2376 -2619.0 
39.04088 924.12616 -2599.0 
24.400574 924.12616 -2599.0 
9.760267 924.12616 -2599.0 
-4.8443646 917.37036 -2580.0 
-19.227612 910.2589 -2560.0 
-33.64823 910.2589 -2560.0 
-48.068848 910.2589 -2560.0 
-62.489464 910.2589 -2560.0 
-76.91008 910.2589 -2560.0 
-91.33089 910.2589 -2560.0 
-105.7515 910.2589 -2560.0 
-120.17212 910.2589 -2560.0 
-134.59274 910.2589 -2560.0 
-149.01335 910.2589 -2560.0 
-163.43416 910.2589 -2560.0 
-177.85477 910.2589 -2560.0 
-192.27539 910.2589 -2560.0 
-205.24268 903.8587 -2542.0 
-219.5619 903.8587 -2542.0 
-235.53743 910.2589 -2560.0 
-248.20053 903.8587 -2542.0 
-260.55756 897.10284 -2523.0 
-272.80945 890.7026 -2505.0 
-286.92026 890.7026 -2505.0 
-301.03122 890.7026 -2505.0 
-315.14203 890.7026 -2505.0 
-329.25284 890.7026 -2505.0 
-343.36362 890.7026 -2505.0 
-357.47443 890.7026 -2505.0 
-371.58542 890.7026 -2505.0 
-385.6962 890.7026 -2505.0 
-396.93414 884.3023 -2487.0 
-410.94354 884.3023 -2487.0 
-424.95294 884.3023 -2487.0 
-438.96255 884.3023 -2487.0 
-452.97195 884.3023 -2487.0 
-466.98135 884.3023 -2487.0 
-480.99075 884.3023 -2487.0 
-495.00012 884.3023 -2487.0 
-509.00977 884.3023 -2487.0 
-523.01917 884.3023 -2487.0 
-537.02856 884.3023 -2487.0 
-547.04974 877.90204 -2469.0 
-556.8681 871.50183 -2451.0 
-570.6749 871.50183 -2451.0 
-584.4815 871.50183 -2451.0 
-598.28815 871.50183 -2451.0 
-607.8493 865.4571 -2434.0 
-621.5601 865.4571 -2434.0 
-635.27124 865.4571 -2434.0 
-648.98206 865.4571 -2434.0 
-662.69293 865.4571 -2434.0 
-676.4038 865.4571 -2434.0 
-685.29456 859.4124 -2417.0 
-698.90985 859.4124 -2417.0 
-707.51337 853.36774 -2400.0 
-721.0327 853.36774 -2400.0 
-739.7551 859.4124 -2417.0 
-753.3702 859.4124 -2417.0 
-766.9855 859.4124 -2417.0 
-780.6006 859.4124 -2417.0 
-788.6295 853.36774 -2400.0 
-802.1489 853.36774 -2400.0 
-815.6682 853.36774 -2400.0 
-823.6598 847.6786 -2384.0 
-842.707 853.36774 -2400.0 
-844.45325 841.634 -2367.0 
-857.7867 841.634 -2367.0 
-871.1201 841.634 -2367.0 
-884.45374 841.634 -2367.0 
-904.2351 847.6786 -2384.0 
-911.1206 841.634 -2367.0 
-924.45404 841.634 -2367.0 
-931.4484 835.9448 -2351.0 
-944.69183 835.9448 -2351.0 
-957.9352 835.9448 -2351.0 
-971.17847 835.9448 -2351.0 
-977.7222 830.2557 -2335.0 
-990.87537 830.2557 -2335.0 
-1010.90857 835.9448 -2351.0 
-1024.152 835.9448 -2351.0 
-1037.3953 835.9448 -2351.0 
-1043.4883 830.2557 -2335.0 
-1056.6415 830.2557 -2335.0 
-1069.7948 830.2557 -2335.0 
-1090.3687 835.9448 -2351.0 
-1103.6119 835.9448 -2351.0 
3434.264 2162.1921 -6179.0 
3399.4568 2162.1921 -6179.0 
3248.6655 2087.658 -5966.0 
3215.0586 2087.658 -5966.0 
3127.0586 2051.9656 -5864.0 
3042.8464 2018.0227 -5767.0 
3060.9941 2051.9656 -5864.0 
2977.8745 2018.0227 -5767.0 
3100.6511 2124.4001 -6071.0 
3013.417 2087.658 -5966.0 
2979.8105 2087.658 -5966.0 
2946.2034 2087.658 -5966.0 
2912.5967 2087.658 -5966.0 
2878.9897 2087.658 -5966.0 
2895.4607 2124.4001 -6071.0 
2811.7761 2087.658 -5966.0 
3040.8052 2285.0164 -6530.0 
2947.8972 2242.3252 -6408.0 
2859.09 2201.734 -6292.0 
2823.6467 2201.734 -6292.0 
2839.607 2242.3252 -6408.0 
2856.8855 2285.0164 -6530.0 
2767.4136 2242.3252 -6408.0 
2731.3171 2242.3252 -6408.0 
2746.5337 2285.0164 -6530.0 
2659.1235 2242.3252 -6408.0 
2575.5437 2201.734 -6292.0 
2540.1006 2201.734 -6292.0 
2550.8337 2242.3252 -6408.0 
2469.214 2201.734 -6292.0 
2433.771 2201.734 -6292.0 
2442.5435 2242.3252 -6408.0 
2499.2046 2328.757 -6655.0 
2370.35 2242.3252 -6408.0 
2291.9978 2201.734 -6292.0 
2341.9104 2285.0164 -6530.0 
2225.9631 2242.3252 -6408.0 
2231.5588 2285.0164 -6530.0 
2194.7747 2285.0164 -6530.0 
2157.9907 2285.0164 -6530.0 
2081.5764 2242.3252 -6408.0 
2084.4229 2285.0164 -6530.0 
2047.6392 2285.0164 -6530.0 
1973.2863 2242.3252 -6408.0 
1937.1897 2242.3252 -6408.0 
1866.6785 2201.734 -6292.0 
1864.9962 2242.3252 -6408.0 
1863.7195 2285.0164 -6530.0 
1826.9354 2285.0164 -6530.0 
1724.9056 2201.734 -6292.0 
1689.4622 2201.734 -6292.0 
1654.019 2201.734 -6292.0 
1618.5758 2201.734 -6292.0 
1583.1324 2201.734 -6292.0 
1547.6893 2201.734 -6292.0 
1512.2458 2201.734 -6292.0 
1476.8027 2201.734 -6292.0 
1390.7333 2124.4001 -6071.0 
1380.6667 2162.1921 -6179.0 
1370.4729 2201.734 -6292.0 
1335.0295 2201.734 -6292.0 
1299.5863 2201.734 -6292.0 
1264.1432 2201.734 -6292.0 
1228.6998 2201.734 -6292.0 
1193.2566 2201.734 -6292.0 
1157.8132 2201.734 -6292.0 
1122.37 2201.734 -6292.0 
1067.4064 2162.1921 -6179.0 
1032.5995 2162.1921 -6179.0 
1016.0403 2201.734 -6292.0 
980.59686 2201.734 -6292.0 
928.1794 2162.1921 -6179.0 
893.37274 2162.1921 -6179.0 
858.5659 2162.1921 -6179.0 
838.824 2201.734 -6292.0 
803.38055 2201.734 -6292.0 
767.9374 2201.734 -6292.0 
732.49426 2201.734 -6292.0 
697.0508 2201.734 -6292.0 
649.72565 2162.1921 -6179.0 
260.63638 916.456 -2619.0 
245.88342 916.456 -2619.0 
229.36542 909.45746 -2599.0 
214.72502 909.45746 -2599.0 
198.622 902.80884 -2580.0 
185.44432 909.45746 -2599.0 
169.55534 902.80884 -2580.0 
155.02206 902.80884 -2580.0 
140.4887 902.80884 -2580.0 
125.95542 902.80884 -2580.0 
111.42205 902.80884 -2580.0 
96.88877 902.80884 -2580.0 
82.35549 902.80884 -2580.0 
68.32159 909.45746 -2599.0 
54.094368 916.456 -2619.0 
39.04088 909.45746 -2599.0 
24.222193 902.80884 -2580.0 
9.688913 902.80884 -2580.0 
-4.8443646 902.80884 -2580.0 
-19.377827 902.80884 -2580.0 
-33.64823 895.81036 -2560.0 
-48.068848 895.81036 -2560.0 
-62.489464 895.81036 -2560.0 
-76.91008 895.81036 -2560.0 
-91.33089 895.81036 -2560.0 
-105.007935 889.51166 -2542.0 
-120.17212 895.81036 -2560.0 
-134.59274 895.81036 -2560.0 
-149.01335 895.81036 -2560.0 
-163.43416 895.81036 -2560.0 
-177.85477 895.81036 -2560.0 
-192.27539 895.81036 -2560.0 
-205.24268 889.51166 -2542.0 
-219.5619 889.51166 -2542.0 
-233.8813 889.51166 -2542.0 
-248.20053 889.51166 -2542.0 
-260.55756 882.8631 -2523.0 
-272.80945 876.56445 -2505.0 
-286.92026 876.56445 -2505.0 
-301.03122 876.56445 -2505.0 
-315.14203 876.56445 -2505.0 
-329.25284 876.56445 -2505.0 
-343.36362 876.56445 -2505.0 
-357.47443 876.56445 -2505.0 
-371.58542 876.56445 -2505.0 
-382.92474 870.26575 -2487.0 
-396.93414 870.26575 -2487.0 
-410.94354 870.26575 -2487.0 
-428.0286 876.56445 -2505.0 
-438.96255 870.26575 -2487.0 
-452.97195 870.26575 -2487.0 
-466.98135 870.26575 -2487.0 
-480.99075 870.26575 -2487.0 
-491.41754 863.9671 -2469.0 
-505.3257 863.9671 -2469.0 
-519.23376 863.9671 -2469.0 
-537.02856 870.26575 -2487.0 
-551.03796 870.26575 -2487.0 
-553.00574 851.71967 -2434.0 
-566.71674 851.71967 -2434.0 
-584.4815 857.6684 -2451.0 
-598.28815 857.6684 -2451.0 
-612.0948 857.6684 -2451.0 
-621.5601 851.71967 -2434.0 
-635.27124 851.71967 -2434.0 
-648.98206 851.71967 -2434.0 
-662.69293 851.71967 -2434.0 
-676.4038 851.71967 -2434.0 
-690.11456 851.71967 -2434.0 
-703.8257 851.71967 -2434.0 
-712.52496 845.77094 -2417.0 
-726.14 845.77094 -2417.0 
-739.7551 845.77094 -2417.0 
-753.3702 845.77094 -2417.0 
-766.9855 845.77094 -2417.0 
-775.11017 839.8222 -2400.0 
-783.372 834.2234 -2384.0 
-791.1193 828.2746 -2367.0 
-810.23035 834.2234 -2384.0 
-823.6598 834.2234 -2384.0 
-837.0889 834.2234 -2384.0 
-844.45325 828.2746 -2367.0 
-857.7867 828.2746 -2367.0 
-871.1201 828.2746 -2367.0 
-884.45374 828.2746 -2367.0 
-904.2351 834.2234 -2384.0 
-917.66437 834.2234 -2384.0 
-931.09357 834.2234 -2384.0 
-937.7875 828.2746 -2367.0 
-944.69183 822.6758 -2351.0 
-957.9352 822.6758 -2351.0 
-964.56903 817.077 -2335.0 
-971.44135 811.8281 -2320.0 
-984.51 811.8281 -2320.0 
-1010.90857 822.6758 -2351.0 
-1031.122 828.2746 -2367.0 
-1044.4553 828.2746 -2367.0 
-1043.4883 817.077 -2335.0 
-1056.6415 817.077 -2335.0 
-1069.7948 817.077 -2335.0 
-1090.3687 822.6758 -2351.0 
-1111.1227 828.2746 -2367.0 
3666.132 2248.1611 -6530.0 
3399.4568 2127.318 -6179.0 
3364.6504 2127.318 -6179.0 
3329.8438 2127.318 -6179.0 
3127.0586 2018.8693 -5864.0 
3094.0266 2018.8693 -5864.0 
3114.2378 2053.986 -5966.0 
3027.962 2018.8693 -5864.0 
3047.0242 2053.986 -5966.0 
3066.4524 2090.1355 -6071.0 
3142.6362 2166.222 -6292.0 
3107.1926 2166.222 -6292.0 
3016.583 2127.318 -6179.0 
2981.7766 2127.318 -6179.0 
2965.42 2166.222 -6292.0 
3040.8052 2248.1611 -6530.0 
3004.0212 2248.1611 -6530.0 
2911.8008 2206.1587 -6408.0 
2930.4534 2248.1611 -6530.0 
2949.0613 2291.1963 -6655.0 
2968.886 2336.297 -6786.0 
2874.0852 2291.1963 -6655.0 
2731.3171 2206.1587 -6408.0 
2746.5337 2248.1611 -6530.0 
2709.7498 2248.1611 -6530.0 
2623.0266 2206.1587 -6408.0 
2586.9302 2206.1587 -6408.0 
2599.398 2248.1611 -6530.0 
2514.7368 2206.1587 -6408.0 
2478.6401 2206.1587 -6408.0 
2489.0461 2248.1611 -6530.0 
2499.2046 2291.1963 -6655.0 
2327.4412 2166.222 -6292.0 
2311.7642 2291.1963 -6655.0 
2319.044 2336.297 -6786.0 
2280.8179 2336.297 -6786.0 
2199.3 2291.1963 -6655.0 
2161.8118 2291.1963 -6655.0 
2124.324 2291.1963 -6655.0 
2086.836 2291.1963 -6655.0 
1973.2863 2206.1587 -6408.0 
1937.1897 2206.1587 -6408.0 
1901.0929 2206.1587 -6408.0 
1900.5033 2248.1611 -6530.0 
1863.7195 2248.1611 -6530.0 
1861.9073 2291.1963 -6655.0 
1756.7062 2206.1587 -6408.0 
1689.4622 2166.222 -6292.0 
1654.019 2166.222 -6292.0 
1679.7998 2248.1611 -6530.0 
1674.467 2291.1963 -6655.0 
1606.2318 2248.1611 -6530.0 
1569.4478 2248.1611 -6530.0 
1532.664 2248.1611 -6530.0 
1495.8801 2248.1611 -6530.0 
1405.9161 2166.222 -6292.0 
1370.4729 2166.222 -6292.0 
1335.0295 2166.222 -6292.0 
1323.5457 2206.1587 -6408.0 
1287.449 2206.1587 -6408.0 
1228.6998 2166.222 -6292.0 
1193.2566 2166.222 -6292.0 
1157.8132 2166.222 -6292.0 
1122.37 2166.222 -6292.0 
1086.9269 2166.222 -6292.0 
1051.4834 2166.222 -6292.0 
1016.0403 2166.222 -6292.0 
980.59686 2166.222 -6292.0 
945.1537 2166.222 -6292.0 
909.7106 2166.222 -6292.0 
874.26715 2166.222 -6292.0 
854.2886 2206.1587 -6408.0 
818.1918 2206.1587 -6408.0 
767.9374 2166.222 -6292.0 
732.49426 2166.222 -6292.0 
697.0508 2166.222 -6292.0 
661.60767 2166.222 -6292.0 
626.16425 2166.222 -6292.0 
244.00574 894.78876 -2599.0 
229.36542 894.78876 -2599.0 
214.72502 894.78876 -2599.0 
200.08473 894.78876 -2599.0 
185.44432 894.78876 -2599.0 
169.55534 888.24744 -2580.0 
153.82034 881.3618 -2560.0 
140.4887 888.24744 -2580.0 
125.95542 888.24744 -2580.0 
111.42205 888.24744 -2580.0 
96.137695 881.3618 -2560.0 
82.35549 888.24744 -2580.0 
68.32159 894.78876 -2599.0 
54.094368 901.6744 -2619.0 
39.04088 894.78876 -2599.0 
24.222193 888.24744 -2580.0 
9.688913 888.24744 -2580.0 
-4.8443646 888.24744 -2580.0 
-19.377827 888.24744 -2580.0 
-33.911106 888.24744 -2580.0 
-48.444386 888.24744 -2580.0 
-62.977665 888.24744 -2580.0 
-76.91008 881.3618 -2560.0 
-91.33089 881.3618 -2560.0 
-105.7515 881.3618 -2560.0 
-120.17212 881.3618 -2560.0 
-134.59274 881.3618 -2560.0 
-149.01335 881.3618 -2560.0 
-163.43416 881.3618 -2560.0 
-177.85477 881.3618 -2560.0 
-190.92346 875.16473 -2542.0 
-205.24268 875.16473 -2542.0 
-217.92079 868.62335 -2523.0 
-232.13318 868.62335 -2523.0 
-248.20053 875.16473 -2542.0 
-260.55756 868.62335 -2523.0 
-272.80945 862.4263 -2505.0 
-286.92026 862.4263 -2505.0 
-303.19434 868.62335 -2523.0 
-315.14203 862.4263 -2505.0 
-329.25284 862.4263 -2505.0 
-343.36362 862.4263 -2505.0 
-357.47443 862.4263 -2505.0 
-371.58542 862.4263 -2505.0 
-382.92474 856.22925 -2487.0 
-396.93414 856.22925 -2487.0 
-410.94354 856.22925 -2487.0 
-428.0286 862.4263 -2505.0 
-438.96255 856.22925 -2487.0 
-452.97195 856.22925 -2487.0 
-466.98135 856.22925 -2487.0 
-480.99075 856.22925 -2487.0 
-491.41754 850.0321 -2469.0 
-505.3257 850.0321 -2469.0 
-519.23376 850.0321 -2469.0 
-533.1417 850.0321 -2469.0 
-547.04974 850.0321 -2469.0 
-553.00574 837.98224 -2434.0 
-566.71674 837.98224 -2434.0 
-584.4815 843.835 -2451.0 
-598.28815 843.835 -2451.0 
-612.0948 843.835 -2451.0 
-625.9014 843.835 -2451.0 
-639.7081 843.835 -2451.0 
-648.98206 837.98224 -2434.0 
-662.69293 837.98224 -2434.0 
-676.4038 837.98224 -2434.0 
-690.11456 837.98224 -2434.0 
-703.8257 837.98224 -2434.0 
-712.52496 832.1295 -2417.0 
-726.14 832.1295 -2417.0 
-739.7551 832.1295 -2417.0 
-753.3702 832.1295 -2417.0 
-766.9855 832.1295 -2417.0 
-775.11017 826.2767 -2400.0 
-783.372 820.7681 -2384.0 
-791.1193 814.9154 -2367.0 
-810.23035 820.7681 -2384.0 
-823.6598 820.7681 -2384.0 
-842.707 826.2767 -2400.0 
-850.5182 820.7681 -2384.0 
-857.7867 814.9154 -2367.0 
-871.1201 814.9154 -2367.0 
-884.45374 814.9154 -2367.0 
-904.2351 820.7681 -2384.0 
-917.66437 820.7681 -2384.0 
-931.09357 820.7681 -2384.0 
-937.7875 814.9154 -2367.0 
-944.69183 809.40686 -2351.0 
-964.4545 814.9154 -2367.0 
-964.56903 803.8984 -2335.0 
-977.7222 803.8984 -2335.0 
-990.87537 803.8984 -2335.0 
-1017.78845 814.9154 -2367.0 
-1031.122 814.9154 -2367.0 
-1044.4553 814.9154 -2367.0 
-1050.6385 809.40686 -2351.0 
-1063.8818 809.40686 -2351.0 
-1077.1252 809.40686 -2351.0 
-1097.7893 814.9154 -2367.0 
-1103.6119 809.40686 -2351.0 
3666.132 2211.3062 -6530.0 
3629.3481 2211.3062 -6530.0 
3461.6255 2130.7102 -6292.0 
3364.6504 2092.444 -6179.0 
3390.739 2130.7102 -6292.0 
3355.2957 2130.7102 -6292.0 
3260.2302 2092.444 -6179.0 
3225.423 2092.444 -6179.0 
3190.6167 2092.444 -6179.0 
3155.8103 2092.444 -6179.0 
3178.0793 2130.7102 -6292.0 
3200.574 2169.9922 -6408.0 
3164.4773 2169.9922 -6408.0 
3211.4778 2253.6357 -6655.0 
3000.863 2130.7102 -6292.0 
3020.0906 2169.9922 -6408.0 
3040.8052 2211.3062 -6530.0 
3061.5256 2253.6357 -6655.0 
2967.2373 2211.3062 -6530.0 
2986.5493 2253.6357 -6655.0 
3007.112 2297.9973 -6786.0 
2968.886 2297.9973 -6786.0 
2874.0852 2253.6357 -6655.0 
2783.3176 2211.3062 -6530.0 
2854.2078 2297.9973 -6786.0 
2872.418 2344.0522 -6922.0 
2724.133 2253.6357 -6655.0 
2686.6448 2253.6357 -6655.0 
2701.304 2297.9973 -6786.0 
2663.078 2297.9973 -6786.0 
2525.83 2211.3062 -6530.0 
2536.6926 2253.6357 -6655.0 
2548.4 2297.9973 -6786.0 
2510.174 2297.9973 -6786.0 
2404.5127 2344.0522 -6922.0 
2319.044 2297.9973 -6786.0 
2280.8179 2297.9973 -6786.0 
2242.592 2297.9973 -6786.0 
2161.8118 2253.6357 -6655.0 
2124.324 2253.6357 -6655.0 
2086.836 2253.6357 -6655.0 
2049.3477 2253.6357 -6655.0 
2011.8596 2253.6357 -6655.0 
1974.3715 2253.6357 -6655.0 
1936.8835 2253.6357 -6655.0 
1899.3956 2253.6357 -6655.0 
1861.9073 2253.6357 -6655.0 
1790.1515 2211.3062 -6530.0 
1720.6094 2169.9922 -6408.0 
1716.5836 2211.3062 -6530.0 
1711.9552 2253.6357 -6655.0 
1674.467 2253.6357 -6655.0 
1636.979 2253.6357 -6655.0 
1599.4907 2253.6357 -6655.0 
1562.0028 2253.6357 -6655.0 
1524.5149 2253.6357 -6655.0 
1431.8357 2169.9922 -6408.0 
1395.7391 2169.9922 -6408.0 
1385.5281 2211.3062 -6530.0 
1374.5625 2253.6357 -6655.0 
1337.0746 2253.6357 -6655.0 
1275.1764 2211.3062 -6530.0 
1215.2556 2169.9922 -6408.0 
1157.8132 2130.7102 -6292.0 
1143.0621 2169.9922 -6408.0 
1106.9656 2169.9922 -6408.0 
1070.8688 2169.9922 -6408.0 
1034.7721 2169.9922 -6408.0 
998.6753 2169.9922 -6408.0 
945.1537 2130.7102 -6292.0 
926.48206 2169.9922 -6408.0 
890.38525 2169.9922 -6408.0 
870.55316 2211.3062 -6530.0 
833.7691 2211.3062 -6530.0 
796.9852 2211.3062 -6530.0 
760.2014 2211.3062 -6530.0 
709.90173 2169.9922 -6408.0 
673.8051 2169.9922 -6408.0 
649.8494 2211.3062 -6530.0 
244.00574 880.1201 -2599.0 
229.36542 880.1201 -2599.0 
214.72502 880.1201 -2599.0 
200.08473 880.1201 -2599.0 
184.08862 873.686 -2580.0 
169.55534 873.686 -2580.0 
155.02206 873.686 -2580.0 
141.52332 880.1201 -2599.0 
125.95542 873.686 -2580.0 
112.24261 880.1201 -2599.0 
96.88877 873.686 -2580.0 
82.35549 873.686 -2580.0 
67.82212 873.686 -2580.0 
53.68128 880.1201 -2599.0 
39.04088 880.1201 -2599.0 
24.222193 873.686 -2580.0 
9.688913 873.686 -2580.0 
-4.8443646 873.686 -2580.0 
-19.377827 873.686 -2580.0 
-33.911106 873.686 -2580.0 
-48.068848 866.91327 -2560.0 
-62.489464 866.91327 -2560.0 
-76.91008 866.91327 -2560.0 
-91.33089 866.91327 -2560.0 
-105.7515 866.91327 -2560.0 
-120.17212 866.91327 -2560.0 
-133.64638 860.81775 -2542.0 
-149.01335 866.91327 -2560.0 
-162.285 860.81775 -2542.0 
-177.85477 866.91327 -2560.0 
-190.92346 860.81775 -2542.0 
-205.24268 860.81775 -2542.0 
-217.92079 854.38367 -2523.0 
-232.13318 854.38367 -2523.0 
-246.34537 854.38367 -2523.0 
-260.55756 854.38367 -2523.0 
-274.76978 854.38367 -2523.0 
-288.98193 854.38367 -2523.0 
-303.19434 854.38367 -2523.0 
-315.14203 848.28815 -2505.0 
-329.25284 848.28815 -2505.0 
-343.36362 848.28815 -2505.0 
-357.47443 848.28815 -2505.0 
-371.58542 848.28815 -2505.0 
-382.92474 842.1927 -2487.0 
-396.93414 842.1927 -2487.0 
-413.91782 848.28815 -2505.0 
-428.0286 848.28815 -2505.0 
-438.96255 842.1927 -2487.0 
-452.97195 842.1927 -2487.0 
-466.98135 842.1927 -2487.0 
-480.99075 842.1927 -2487.0 
-495.00012 842.1927 -2487.0 
-505.3257 836.09717 -2469.0 
-519.23376 836.09717 -2469.0 
-529.2549 830.0017 -2451.0 
-543.0615 830.0017 -2451.0 
-556.8681 830.0017 -2451.0 
-570.6749 830.0017 -2451.0 
-584.4815 830.0017 -2451.0 
-598.28815 830.0017 -2451.0 
-607.8493 824.2449 -2434.0 
-621.5601 824.2449 -2434.0 
-635.27124 824.2449 -2434.0 
-648.98206 824.2449 -2434.0 
-662.69293 824.2449 -2434.0 
-676.4038 824.2449 -2434.0 
-690.11456 824.2449 -2434.0 
-703.8257 824.2449 -2434.0 
-712.52496 818.48804 -2417.0 
-726.14 818.48804 -2417.0 
-739.7551 818.48804 -2417.0 
-753.3702 818.48804 -2417.0 
-766.9855 818.48804 -2417.0 
-780.6006 818.48804 -2417.0 
-794.21564 818.48804 -2417.0 
-802.1489 812.73114 -2400.0 
-815.6682 812.73114 -2400.0 
-829.1877 812.73114 -2400.0 
-842.707 812.73114 -2400.0 
-850.5182 807.3129 -2384.0 
-863.9474 807.3129 -2384.0 
-871.1201 801.5561 -2367.0 
-884.45374 801.5561 -2367.0 
-897.7872 801.5561 -2367.0 
-911.1206 801.5561 -2367.0 
-924.45404 801.5561 -2367.0 
-937.7875 801.5561 -2367.0 
-944.69183 796.1379 -2351.0 
-951.41583 790.71967 -2335.0 
-958.3727 785.64014 -2320.0 
-971.44135 785.64014 -2320.0 
-990.87537 790.71967 -2335.0 
-1010.90857 796.1379 -2351.0 
-1024.152 796.1379 -2351.0 
-1044.4553 801.5561 -2367.0 
-1050.6385 796.1379 -2351.0 
-1071.1222 801.5561 -2367.0 
-1084.4558 801.5561 -2367.0 
-1097.7893 801.5561 -2367.0 
-1103.6119 796.1379 -2351.0 
3736.3108 2216.0752 -6655.0 
3629.3481 2174.451 -6530.0 
3461.6255 2095.1985 -6292.0 
3426.1821 2095.1985 -6292.0 
3390.739 2095.1985 -6292.0 
3355.2957 2095.1985 -6292.0 
3319.8525 2095.1985 -6292.0 
3284.409 2095.1985 -6292.0 
3248.9658 2095.1985 -6292.0 
3213.5227 2095.1985 -6292.0 
3178.0793 2095.1985 -6292.0 
3200.574 2133.8257 -6408.0 
3224.7249 2174.451 -6530.0 
3248.9658 2216.0752 -6655.0 
3114.373 2174.451 -6530.0 
3077.589 2174.451 -6530.0 
3099.0137 2216.0752 -6655.0 
3061.5256 2216.0752 -6655.0 
3024.0376 2216.0752 -6655.0 
3045.338 2259.6975 -6786.0 
2949.0613 2216.0752 -6655.0 
2911.5732 2216.0752 -6655.0 
2874.0852 2216.0752 -6655.0 
2836.5972 2216.0752 -6655.0 
2854.2078 2259.6975 -6786.0 
2931.3435 2352.2698 -7064.0 
2891.5513 2352.2698 -7064.0 
2739.53 2259.6975 -6786.0 
2755.4417 2304.9846 -6922.0 
2716.4495 2304.9846 -6922.0 
2624.8523 2259.6975 -6786.0 
2638.465 2304.9846 -6922.0 
2599.4731 2304.9846 -6922.0 
2613.0078 2352.2698 -7064.0 
2453.8396 2352.2698 -7064.0 
2319.044 2259.6975 -6786.0 
2280.8179 2259.6975 -6786.0 
2242.592 2259.6975 -6786.0 
2204.366 2259.6975 -6786.0 
2166.14 2259.6975 -6786.0 
2086.836 2216.0752 -6655.0 
2089.688 2259.6975 -6786.0 
2011.8596 2216.0752 -6655.0 
1974.3715 2216.0752 -6655.0 
1975.01 2259.6975 -6786.0 
1975.5997 2304.9846 -6922.0 
1861.9073 2216.0752 -6655.0 
1824.4193 2216.0752 -6655.0 
1786.9312 2216.0752 -6655.0 
1749.4432 2216.0752 -6655.0 
1745.654 2259.6975 -6786.0 
1674.467 2216.0752 -6655.0 
1636.979 2216.0752 -6655.0 
1630.976 2259.6975 -6786.0 
1562.0028 2216.0752 -6655.0 
1524.5149 2216.0752 -6655.0 
1487.0267 2216.0752 -6655.0 
1422.3121 2174.451 -6530.0 
1385.5281 2174.451 -6530.0 
1374.5625 2216.0752 -6655.0 
1337.0746 2216.0752 -6655.0 
1299.5863 2216.0752 -6655.0 
1262.0983 2216.0752 -6655.0 
1179.1588 2133.8257 -6408.0 
1187.1222 2216.0752 -6655.0 
1149.6342 2216.0752 -6655.0 
1112.146 2216.0752 -6655.0 
1074.6581 2216.0752 -6655.0 
1037.1698 2216.0752 -6655.0 
980.9049 2174.451 -6530.0 
944.12103 2174.451 -6530.0 
907.337 2174.451 -6530.0 
870.55316 2174.451 -6530.0 
833.7691 2174.451 -6530.0 
812.24146 2216.0752 -6655.0 
790.00415 2259.6975 -6786.0 
751.77795 2259.6975 -6786.0 
699.77734 2216.0752 -6655.0 
662.2891 2216.0752 -6655.0 
624.80115 2216.0752 -6655.0 
227.68864 859.1246 -2580.0 
214.72502 865.4515 -2599.0 
200.08473 865.4515 -2599.0 
185.44432 865.4515 -2599.0 
169.55534 859.1246 -2580.0 
155.02206 859.1246 -2580.0 
141.52332 865.4515 -2599.0 
125.95542 859.1246 -2580.0 
111.42205 859.1246 -2580.0 
96.88877 859.1246 -2580.0 
82.35549 859.1246 -2580.0 
67.82212 859.1246 -2580.0 
53.28884 859.1246 -2580.0 
38.75547 859.1246 -2580.0 
24.222193 859.1246 -2580.0 
9.688913 859.1246 -2580.0 
-4.8443646 859.1246 -2580.0 
-19.377827 859.1246 -2580.0 
-33.64823 852.46466 -2560.0 
-48.068848 852.46466 -2560.0 
-62.977665 859.1246 -2580.0 
-77.51094 859.1246 -2580.0 
-91.33089 852.46466 -2560.0 
-105.7515 852.46466 -2560.0 
-120.17212 852.46466 -2560.0 
-133.64638 846.47076 -2542.0 
-147.9656 846.47076 -2542.0 
-162.285 846.47076 -2542.0 
-177.85477 852.46466 -2560.0 
-190.92346 846.47076 -2542.0 
-205.24268 846.47076 -2542.0 
-217.92079 840.1439 -2523.0 
-232.13318 840.1439 -2523.0 
-246.34537 840.1439 -2523.0 
-262.51974 846.47076 -2542.0 
-274.76978 840.1439 -2523.0 
-288.98193 840.1439 -2523.0 
-301.03122 834.15 -2505.0 
-315.14203 834.15 -2505.0 
-329.25284 834.15 -2505.0 
-343.36362 834.15 -2505.0 
-357.47443 834.15 -2505.0 
-371.58542 834.15 -2505.0 
-385.6962 834.15 -2505.0 
-396.93414 828.1561 -2487.0 
-413.91782 834.15 -2505.0 
-424.95294 828.1561 -2487.0 
-438.96255 828.1561 -2487.0 
-452.97195 828.1561 -2487.0 
-466.98135 828.1561 -2487.0 
-480.99075 828.1561 -2487.0 
-495.00012 828.1561 -2487.0 
-509.00977 828.1561 -2487.0 
-523.01917 828.1561 -2487.0 
-537.02856 828.1561 -2487.0 
-547.04974 822.1623 -2469.0 
-560.95776 822.1623 -2469.0 
-570.6749 816.16833 -2451.0 
-584.4815 816.16833 -2451.0 
-598.28815 816.16833 -2451.0 
-607.8493 810.50745 -2434.0 
-621.5601 810.50745 -2434.0 
-635.27124 810.50745 -2434.0 
-648.98206 810.50745 -2434.0 
-662.69293 810.50745 -2434.0 
-676.4038 810.50745 -2434.0 
-685.29456 804.84656 -2417.0 
-698.90985 804.84656 -2417.0 
-712.52496 804.84656 -2417.0 
-726.14 804.84656 -2417.0 
-739.7551 804.84656 -2417.0 
-753.3702 804.84656 -2417.0 
-761.5909 799.18567 -2400.0 
-775.11017 799.18567 -2400.0 
-788.6295 799.18567 -2400.0 
-802.1489 799.18567 -2400.0 
-815.6682 799.18567 -2400.0 
-823.6598 793.8578 -2384.0 
-842.707 799.18567 -2400.0 
-856.2263 799.18567 -2400.0 
-869.7457 799.18567 -2400.0 
-883.265 799.18567 -2400.0 
-884.45374 788.19684 -2367.0 
-897.7872 788.19684 -2367.0 
-911.1206 788.19684 -2367.0 
