ply
format ascii 1.0
comment this is my Proccessing file
element vertex 1610
property float x
property float y
property float z
end_header
-1980.3802 -351.3031 -3458.0 
-2000.5955 -358.4145 -3528.0 
-1980.7218 -358.4145 -3528.0 
-4338.6587 -817.9124 -8051.0 
-4293.3066 -817.9124 -8051.0 
-4349.7876 -837.51953 -8244.0 
-4303.348 -837.51953 -8244.0 
-4256.9097 -837.51953 -8244.0 
-4210.4707 -837.51953 -8244.0 
-4164.0312 -837.51953 -8244.0 
-4117.593 -837.51953 -8244.0 
-4071.1533 -837.51953 -8244.0 
-3930.492 -817.9124 -8051.0 
-3978.2756 -837.51953 -8244.0 
-3669.0464 -781.54266 -7693.0 
-3794.4368 -817.9124 -8051.0 
-3932.5574 -857.93945 -8445.0 
-3789.8438 -857.93945 -8445.0 
-3653.2024 -837.51953 -8244.0 
-3522.3254 -817.9124 -8051.0 
-3397.942 -799.32117 -7868.0 
-3353.621 -799.32117 -7868.0 
-3386.2698 -817.9124 -8051.0 
-3264.9788 -799.32117 -7868.0 
-3295.5664 -817.9124 -8051.0 
-2910.4111 -799.32117 -7868.0 
-2866.09 -799.32117 -7868.0 
-2759.0073 -781.54266 -7693.0 
-2656.3672 -764.4753 -7525.0 
-2571.5894 -764.4753 -7525.0 
-2585.6665 -781.54266 -7693.0 
-2542.3313 -781.54266 -7693.0 
-2498.9958 -781.54266 -7693.0 
-2402.0342 -764.4753 -7525.0 
-2412.326 -781.54266 -7693.0 
-2190.0898 -764.4753 -7525.0 
-2147.7012 -764.4753 -7525.0 
-2105.3123 -764.4753 -7525.0 
-2062.9233 -764.4753 -7525.0 
-2020.5344 -764.4753 -7525.0 
-1936.0854 -748.2207 -7365.0 
-1978.974 -781.54266 -7693.0 
-1893.368 -764.4753 -7525.0 
-1850.9792 -764.4753 -7525.0 
-1848.968 -781.54266 -7693.0 
-1846.7075 -799.32117 -7868.0 
-1723.8129 -764.4753 -7525.0 
-1681.4238 -764.4753 -7525.0 
-1675.6276 -781.54266 -7693.0 
-1632.2921 -781.54266 -7693.0 
-1588.957 -781.54266 -7693.0 
-1580.7817 -799.32117 -7868.0 
-1536.4606 -799.32117 -7868.0 
-1492.1398 -799.32117 -7868.0 
-1447.8185 -799.32117 -7868.0 
-1403.4977 -799.32117 -7868.0 
-1328.946 -781.54266 -7693.0 
-1314.8556 -799.32117 -7868.0 
-1270.5348 -799.32117 -7868.0 
-1254.7339 -817.9124 -8051.0 
-1238.3737 -837.51953 -8244.0 
-1191.9348 -837.51953 -8244.0 
-1068.9347 -781.54266 -7693.0 
-1048.9299 -799.32117 -7868.0 
-1027.9747 -817.9124 -8051.0 
-982.623 -817.9124 -8051.0 
-937.2713 -817.9124 -8051.0 
-891.9193 -817.9124 -8051.0 
-846.56757 -817.9124 -8051.0 
-801.2156 -817.9124 -8051.0 
-755.86383 -817.9124 -8051.0 
-710.51215 -817.9124 -8051.0 
-650.04095 -799.32117 -7868.0 
-619.8084 -817.9124 -8051.0 
-574.4564 -817.9124 -8051.0 
-529.1047 -817.9124 -8051.0 
-483.753 -817.9124 -8051.0 
-402.4715 -837.51953 -8244.0 
-347.69724 -817.9124 -8051.0 
-302.34555 -817.9124 -8051.0 
-269.5706 -857.93945 -8445.0 
-216.71533 -837.51953 -8244.0 
-170.27644 -837.51953 -8244.0 
-126.856575 -857.93945 -8445.0 
-79.28543 -857.93945 -8445.0 
-30.95946 -837.51953 -8244.0 
15.479436 -837.51953 -8244.0 
61.91892 -837.51953 -8244.0 
108.35781 -837.51953 -8244.0 
154.7967 -837.51953 -8244.0 
201.2356 -837.51953 -8244.0 
247.6745 -837.51953 -8244.0 
294.11398 -837.51953 -8244.0 
340.5529 -837.51953 -8244.0 
396.42715 -857.93945 -8445.0 
433.43066 -837.51953 -8244.0 
479.86957 -837.51953 -8244.0 
526.3091 -837.51953 -8244.0 
572.7479 -837.51953 -8244.0 
619.1868 -837.51953 -8244.0 
665.6258 -837.51953 -8244.0 
712.06464 -837.51953 -8244.0 
758.50415 -837.51953 -8244.0 
804.943 -837.51953 -8244.0 
851.3819 -837.51953 -8244.0 
897.82086 -837.51953 -8244.0 
944.2597 -837.51953 -8244.0 
1014.85376 -857.93945 -8445.0 
1062.4249 -857.93945 -8445.0 
1083.577 -837.51953 -8244.0 
1103.561 -817.9124 -8051.0 
1148.9128 -817.9124 -8051.0 
1222.8943 -837.51953 -8244.0 
1269.3331 -837.51953 -8244.0 
1315.7721 -837.51953 -8244.0 
1330.3203 -817.9124 -8051.0 
1375.672 -817.9124 -8051.0 
1421.0243 -817.9124 -8051.0 
1466.376 -817.9124 -8051.0 
1511.7277 -817.9124 -8051.0 
1557.0795 -817.9124 -8051.0 
1723.0464 -879.4768 -8657.0 
1728.4227 -857.93945 -8445.0 
1775.9939 -857.93945 -8445.0 
1780.1622 -837.51953 -8244.0 
1826.6011 -837.51953 -8244.0 
1873.04 -837.51953 -8244.0 
1919.4794 -837.51953 -8244.0 
1965.9183 -837.51953 -8244.0 
1965.246 -817.9124 -8051.0 
2058.7961 -837.51953 -8244.0 
2055.9495 -817.9124 -8051.0 
2101.3018 -817.9124 -8051.0 
2146.6533 -817.9124 -8051.0 
2244.5522 -837.51953 -8244.0 
2237.357 -817.9124 -8051.0 
2230.8225 -799.32117 -7868.0 
2328.061 -817.9124 -8051.0 
2373.4126 -817.9124 -8051.0 
2418.7644 -817.9124 -8051.0 
2600.1716 -817.9124 -8051.0 
2708.9424 -837.51953 -8244.0 
2690.8752 -817.9124 -8051.0 
2736.227 -817.9124 -8051.0 
2781.579 -817.9124 -8051.0 
2826.931 -817.9124 -8051.0 
2872.2827 -817.9124 -8051.0 
2939.9587 -799.32117 -7868.0 
3053.69 -817.9124 -8051.0 
3099.0417 -817.9124 -8051.0 
3144.3936 -817.9124 -8051.0 
3189.7454 -817.9124 -8051.0 
3235.0974 -817.9124 -8051.0 
3359.0889 -837.51953 -8244.0 
3405.5276 -837.51953 -8244.0 
3451.9663 -837.51953 -8244.0 
3498.4055 -837.51953 -8244.0 
3461.8564 -817.9124 -8051.0 
-1979.6292 -363.5278 -3390.0 
-1979.6178 -367.06656 -3423.0 
-2000.4246 -374.57306 -3493.0 
-2000.5955 -378.3263 -3528.0 
-2001.4948 -382.29398 -3565.0 
-4349.7876 -884.04816 -8244.0 
-4303.348 -884.04816 -8244.0 
-4470.168 -928.33636 -8657.0 
-4265.556 -905.6025 -8445.0 
-4117.593 -884.04816 -8244.0 
-4071.1533 -884.04816 -8244.0 
-4024.7146 -884.04816 -8244.0 
-3746.0806 -884.04816 -8244.0 
-3789.8438 -905.6025 -8445.0 
-3742.2725 -905.6025 -8445.0 
-3606.7632 -884.04816 -8244.0 
-3476.9736 -863.3517 -8051.0 
-3431.622 -863.3517 -8051.0 
-3467.4463 -884.04816 -8244.0 
-3340.9185 -863.3517 -8051.0 
-3374.568 -884.04816 -8244.0 
-3328.1294 -884.04816 -8244.0 
-3281.6904 -884.04816 -8244.0 
-3159.5107 -863.3517 -8051.0 
-2910.4111 -843.72766 -7868.0 
-2866.09 -843.72766 -7868.0 
-2821.769 -843.72766 -7868.0 
-2777.448 -843.72766 -7868.0 
-2733.1272 -843.72766 -7868.0 
-2751.3445 -863.3517 -8051.0 
-2705.9924 -863.3517 -8051.0 
-2600.164 -843.72766 -7868.0 
-2555.843 -843.72766 -7868.0 
-2402.0342 -806.9459 -7525.0 
-2359.6455 -806.9459 -7525.0 
-2282.32 -824.9615 -7693.0 
-2238.9849 -824.9615 -7693.0 
-2245.5964 -843.72766 -7868.0 
-2201.2751 -843.72766 -7868.0 
-2156.9543 -843.72766 -7868.0 
-2112.6333 -843.72766 -7868.0 
-2022.309 -824.9615 -7693.0 
-1978.974 -824.9615 -7693.0 
-1979.6703 -843.72766 -7868.0 
-1935.3495 -843.72766 -7868.0 
-1891.0283 -843.72766 -7868.0 
-1889.6597 -863.3517 -8051.0 
-1844.3079 -863.3517 -8051.0 
-1681.4238 -806.9459 -7525.0 
-1675.6276 -824.9615 -7693.0 
-1708.2522 -863.3517 -8051.0 
-1662.9005 -863.3517 -8051.0 
-1617.5487 -863.3517 -8051.0 
-1572.1968 -863.3517 -8051.0 
-1526.845 -863.3517 -8051.0 
-1481.493 -863.3517 -8051.0 
-1436.1414 -863.3517 -8051.0 
-1328.946 -824.9615 -7693.0 
-1314.8556 -843.72766 -7868.0 
-257.07822 -170.71866 -1592.0 
-245.92845 -169.21738 -1578.0 
-1268.5669 -905.6025 -8445.0 
-1073.3267 -863.3517 -8051.0 
-1052.6176 -884.04816 -8244.0 
-1006.17865 -884.04816 -8244.0 
-937.2713 -863.3517 -8051.0 
-891.9193 -863.3517 -8051.0 
-846.56757 -863.3517 -8051.0 
-801.2156 -863.3517 -8051.0 
-755.86383 -863.3517 -8051.0 
-710.51215 -863.3517 -8051.0 
-650.04095 -843.72766 -7868.0 
-619.8084 -863.3517 -8051.0 
-561.399 -843.72766 -7868.0 
-529.1047 -863.3517 -8051.0 
-310.2244 -553.65607 -5163.0 
-281.14075 -553.65607 -5163.0 
-347.69724 -863.3517 -8051.0 
-302.34555 -863.3517 -8051.0 
-164.80673 -553.65607 -5163.0 
-178.80678 -928.33636 -8657.0 
-130.04112 -928.33636 -8657.0 
-79.28543 -905.6025 -8445.0 
-31.714294 -905.6025 -8445.0 
15.856845 -905.6025 -8445.0 
61.91892 -884.04816 -8244.0 
108.35781 -884.04816 -8244.0 
154.7967 -884.04816 -8244.0 
127.95695 -562.1276 -5242.0 
157.48541 -562.1276 -5242.0 
187.01425 -562.1276 -5242.0 
216.54272 -562.1276 -5242.0 
246.0712 -562.1276 -5242.0 
279.80566 -570.7065 -5322.0 
309.7848 -570.7065 -5322.0 
334.65698 -562.1276 -5242.0 
364.18546 -562.1276 -5242.0 
393.7139 -562.1276 -5242.0 
423.24237 -562.1276 -5242.0 
712.06464 -884.04816 -8244.0 
758.50415 -884.04816 -8244.0 
519.63934 -570.7065 -5322.0 
541.3566 -562.1276 -5242.0 
570.8851 -562.1276 -5242.0 
600.4136 -562.1276 -5242.0 
629.9424 -562.1276 -5242.0 
659.4708 -562.1276 -5242.0 
688.9993 -562.1276 -5242.0 
707.69916 -553.65607 -5163.0 
736.78265 -553.65607 -5163.0 
765.86646 -553.65607 -5163.0 
794.94995 -553.65607 -5163.0 
824.0334 -553.65607 -5163.0 
840.55884 -545.50616 -5087.0 
869.2142 -545.50616 -5087.0 
911.2841 -553.65607 -5163.0 
926.5252 -545.50616 -5087.0 
1547.9672 -884.04816 -8244.0 
1680.851 -905.6025 -8445.0 
1728.4227 -905.6025 -8445.0 
1775.9939 -905.6025 -8445.0 
1823.565 -905.6025 -8445.0 
1826.6011 -884.04816 -8244.0 
1918.7072 -905.6025 -8445.0 
1919.4794 -884.04816 -8244.0 
1965.9183 -884.04816 -8244.0 
2012.3573 -884.04816 -8244.0 
2058.7961 -884.04816 -8244.0 
2151.6746 -884.04816 -8244.0 
2198.1133 -884.04816 -8244.0 
2244.5522 -884.04816 -8244.0 
2237.357 -863.3517 -8051.0 
2282.7085 -863.3517 -8051.0 
2328.061 -863.3517 -8051.0 
2430.3083 -884.04816 -8244.0 
2476.7473 -884.04816 -8244.0 
2600.1716 -863.3517 -8051.0 
2645.5234 -863.3517 -8051.0 
2690.8752 -863.3517 -8051.0 
2736.227 -863.3517 -8051.0 
2781.579 -863.3517 -8051.0 
2826.931 -863.3517 -8051.0 
2872.2827 -863.3517 -8051.0 
2917.6345 -863.3517 -8051.0 
2962.986 -863.3517 -8051.0 
3008.3381 -863.3517 -8051.0 
3126.8938 -884.04816 -8244.0 
3099.0417 -863.3517 -8051.0 
3219.7712 -884.04816 -8244.0 
3189.7454 -863.3517 -8051.0 
3235.0974 -863.3517 -8051.0 
3359.0889 -884.04816 -8244.0 
3405.5276 -884.04816 -8244.0 
3536.1304 -905.6025 -8445.0 
3583.7012 -905.6025 -8445.0 
3631.2732 -905.6025 -8445.0 
-1979.6292 -382.66092 -3390.0 
-1999.8593 -390.33673 -3458.0 
-2000.4246 -394.2875 -3493.0 
-2000.5955 -398.23828 -3528.0 
-1961.0718 -394.2875 -3493.0 
-4684.833 -1002.25555 -8879.0 
-4634.817 -1002.25555 -8879.0 
-4584.8013 -1002.25555 -8879.0 
-4217.985 -953.2659 -8445.0 
-4170.4136 -953.2659 -8445.0 
-4226.341 -977.19635 -8657.0 
-3746.0806 -930.5772 -8244.0 
-3789.8438 -953.2659 -8445.0 
-3742.2725 -953.2659 -8445.0 
-3606.7632 -930.5772 -8244.0 
-3560.3245 -930.5772 -8244.0 
-3513.8855 -930.5772 -8244.0 
-3551.9873 -953.2659 -8445.0 
-3421.0073 -930.5772 -8244.0 
-3374.568 -930.5772 -8244.0 
-3328.1294 -930.5772 -8244.0 
-3361.7024 -953.2659 -8445.0 
-3314.131 -953.2659 -8445.0 
-3023.4553 -908.79144 -8051.0 
-2978.1035 -908.79144 -8051.0 
-2866.09 -888.1346 -7868.0 
-2821.769 -888.1346 -7868.0 
-2842.048 -908.79144 -8051.0 
-2863.7393 -930.5772 -8244.0 
-2817.3003 -930.5772 -8244.0 
-2705.9924 -908.79144 -8051.0 
-2660.6409 -908.79144 -8051.0 
-2555.843 -888.1346 -7868.0 
-2455.661 -868.3807 -7693.0 
-2467.2014 -888.1346 -7868.0 
-2334.238 -888.1346 -7868.0 
-2289.9172 -888.1346 -7868.0 
-2297.8262 -908.79144 -8051.0 
-2252.4744 -908.79144 -8051.0 
-2207.1226 -908.79144 -8051.0 
-2213.5928 -930.5772 -8244.0 
-2116.4187 -908.79144 -8051.0 
-2071.067 -908.79144 -8051.0 
-1979.6703 -888.1346 -7868.0 
-1980.3633 -908.79144 -8051.0 
-1891.0283 -888.1346 -7868.0 
-1889.6597 -908.79144 -8051.0 
-1844.3079 -908.79144 -8051.0 
-1798.9559 -908.79144 -8051.0 
-1753.6041 -908.79144 -8051.0 
-1749.2028 -930.5772 -8244.0 
-1702.7638 -930.5772 -8244.0 
-1656.325 -930.5772 -8244.0 
-1609.8856 -930.5772 -8244.0 
-306.27933 -182.30011 -1615.0 
-297.1819 -182.30011 -1615.0 
-288.0845 -182.30011 -1615.0 
-277.60513 -181.39708 -1607.0 
-267.38293 -180.60692 -1600.0 
-258.3701 -180.60692 -1600.0 
-247.01941 -178.91374 -1585.0 
-571.9761 -582.79596 -5163.0 
-542.89264 -582.79596 -5163.0 
-521.67084 -591.71344 -5242.0 
-484.7255 -582.79596 -5163.0 
-455.64206 -582.79596 -5163.0 
-433.08527 -591.71344 -5242.0 
-397.47498 -582.79596 -5163.0 
-368.39133 -582.79596 -5163.0 
-339.30786 -582.79596 -5163.0 
-310.2244 -582.79596 -5163.0 
-277.00232 -574.21716 -5087.0 
-252.0573 -582.79596 -5163.0 
-222.97366 -582.79596 -5163.0 
-196.85695 -591.71344 -5242.0 
-164.80673 -582.79596 -5163.0 
-135.72311 -582.79596 -5163.0 
-106.63965 -582.79596 -5163.0 
-77.55601 -582.79596 -5163.0 
-48.47255 -582.79596 -5163.0 
-19.685772 -591.71344 -5242.0 
9.842698 -591.71344 -5242.0 
39.371544 -591.71344 -5242.0 
68.90001 -591.71344 -5242.0 
98.428474 -591.71344 -5242.0 
127.95695 -591.71344 -5242.0 
157.48541 -591.71344 -5242.0 
184.19585 -582.79596 -5163.0 
213.2793 -582.79596 -5163.0 
246.0712 -591.71344 -5242.0 
275.59964 -591.71344 -5242.0 
305.12814 -591.71344 -5242.0 
334.65698 -591.71344 -5242.0 
358.69693 -582.79596 -5163.0 
393.7139 -591.71344 -5242.0 
423.24237 -591.71344 -5242.0 
452.77084 -591.71344 -5242.0 
482.29968 -591.71344 -5242.0 
511.82816 -591.71344 -5242.0 
541.3566 -591.71344 -5242.0 
570.8851 -591.71344 -5242.0 
600.4136 -591.71344 -5242.0 
629.9424 -591.71344 -5242.0 
659.4708 -591.71344 -5242.0 
688.9993 -591.71344 -5242.0 
707.69916 -582.79596 -5163.0 
736.78265 -582.79596 -5163.0 
765.86646 -582.79596 -5163.0 
794.94995 -582.79596 -5163.0 
824.0334 -582.79596 -5163.0 
853.1168 -582.79596 -5163.0 
882.2003 -582.79596 -5163.0 
911.2841 -582.79596 -5163.0 
926.5252 -574.21716 -5087.0 
941.2857 -565.8641 -5013.0 
1771.8124 -977.19635 -8657.0 
1820.5776 -977.19635 -8657.0 
1869.343 -977.19635 -8657.0 
1871.1361 -953.2659 -8445.0 
1966.8738 -977.19635 -8657.0 
1966.279 -953.2659 -8445.0 
2064.405 -977.19635 -8657.0 
2113.1704 -977.19635 -8657.0 
2204.1353 -953.2659 -8445.0 
2251.7065 -953.2659 -8445.0 
2417.4407 -1002.25555 -8879.0 
2346.8486 -953.2659 -8445.0 
2337.4302 -930.5772 -8244.0 
2383.8696 -930.5772 -8244.0 
2552.0598 -977.19635 -8657.0 
2537.1338 -953.2659 -8445.0 
2649.5903 -977.19635 -8657.0 
2616.0647 -930.5772 -8244.0 
2600.1716 -908.79144 -8051.0 
2645.5234 -908.79144 -8051.0 
2690.8752 -908.79144 -8051.0 
2801.8203 -930.5772 -8244.0 
2848.2598 -930.5772 -8244.0 
2987.5762 -930.5772 -8244.0 
3034.0154 -930.5772 -8244.0 
3080.4548 -930.5772 -8244.0 
3203.1316 -953.2659 -8445.0 
3173.3325 -930.5772 -8244.0 
3381.0725 -977.19635 -8657.0 
3266.2104 -930.5772 -8244.0 
3235.0974 -908.79144 -8051.0 
3624.9 -977.19635 -8657.0 
-1979.6292 -401.79407 -3390.0 
-1979.6178 -405.70532 -3423.0 
-1980.3802 -409.85364 -3458.0 
-1960.9011 -409.85364 -3458.0 
-1941.4218 -409.85364 -3458.0 
-4910.9673 -1080.1029 -9113.0 
-4734.849 -1052.3685 -8879.0 
-4684.833 -1052.3685 -8879.0 
-4634.817 -1052.3685 -8879.0 
-4584.8013 -1052.3685 -8879.0 
-4177.575 -1026.0564 -8657.0 
-4234.689 -1052.3685 -8879.0 
-4134.6567 -1052.3685 -8879.0 
-3982.5134 -1026.0564 -8657.0 
-3837.415 -1000.92944 -8445.0 
-3884.9824 -1026.0564 -8657.0 
-3836.217 -1026.0564 -8657.0 
-3787.4514 -1026.0564 -8657.0 
-3834.5608 -1052.3685 -8879.0 
-3689.9207 -1026.0564 -8657.0 
-3641.155 -1026.0564 -8657.0 
-3504.4163 -1000.92944 -8445.0 
-3456.845 -1000.92944 -8445.0 
-3328.1294 -977.1062 -8244.0 
-3361.7024 -1000.92944 -8445.0 
-3314.131 -1000.92944 -8445.0 
-3095.9343 -977.1062 -8244.0 
-3049.4954 -977.1062 -8244.0 
-2821.769 -932.54144 -7868.0 
-2842.048 -954.23126 -8051.0 
-2863.7393 -977.1062 -8244.0 
-2817.3003 -977.1062 -8244.0 
-2770.861 -977.1062 -8244.0 
-2724.422 -977.1062 -8244.0 
-2677.983 -977.1062 -8244.0 
-2695.7048 -1000.92944 -8445.0 
-2524.5852 -954.23126 -8051.0 
-2334.238 -932.54144 -7868.0 
-2343.178 -954.23126 -8051.0 
-2410.2773 -1000.92944 -8445.0 
-2362.7058 -1000.92944 -8445.0 
-2260.032 -977.1062 -8244.0 
-2213.5928 -977.1062 -8244.0 
-2167.154 -977.1062 -8244.0 
-2120.715 -977.1062 -8244.0 
-2025.7151 -954.23126 -8051.0 
-1980.3633 -954.23126 -8051.0 
-1935.0114 -954.23126 -8051.0 
-1934.9589 -977.1062 -8244.0 
-1888.52 -977.1062 -8244.0 
-1842.0807 -977.1062 -8244.0 
-1885.5983 -1026.0564 -8657.0 
-1883.9364 -1052.3685 -8879.0 
-1788.0673 -1026.0564 -8657.0 
-325.8805 -192.24483 -1622.0 
-316.74365 -192.24483 -1622.0 
-306.27933 -191.41516 -1615.0 
-297.1819 -191.41516 -1615.0 
-286.65744 -190.46698 -1607.0 
-277.60513 -190.46698 -1607.0 
-268.55276 -190.46698 -1607.0 
-258.3701 -189.6373 -1600.0 
-592.21204 -602.9281 -5087.0 
-571.9761 -611.93585 -5163.0 
-542.89264 -611.93585 -5163.0 
-513.80896 -611.93585 -5163.0 
-484.7255 -611.93585 -5163.0 
-455.64206 -611.93585 -5163.0 
-426.5584 -611.93585 -5163.0 
-397.47498 -611.93585 -5163.0 
-368.39133 -611.93585 -5163.0 
-339.30786 -611.93585 -5163.0 
-310.2244 -611.93585 -5163.0 
-281.14075 -611.93585 -5163.0 
-252.0573 -611.93585 -5163.0 
-226.38542 -621.29926 -5242.0 
-193.8902 -611.93585 -5163.0 
-164.80673 -611.93585 -5163.0 
-135.72311 -611.93585 -5163.0 
-106.63965 -611.93585 -5163.0 
-78.74271 -621.29926 -5242.0 
-49.214237 -621.29926 -5242.0 
-19.685772 -621.29926 -5242.0 
9.842698 -621.29926 -5242.0 
39.371544 -621.29926 -5242.0 
68.90001 -621.29926 -5242.0 
98.428474 -621.29926 -5242.0 
127.95695 -621.29926 -5242.0 
155.11201 -611.93585 -5163.0 
187.01425 -621.29926 -5242.0 
213.2793 -611.93585 -5163.0 
246.0712 -621.29926 -5242.0 
275.59964 -621.29926 -5242.0 
305.12814 -621.29926 -5242.0 
334.65698 -621.29926 -5242.0 
364.18546 -621.29926 -5242.0 
393.7139 -621.29926 -5242.0 
423.24237 -621.29926 -5242.0 
445.94733 -611.93585 -5163.0 
475.03113 -611.93585 -5163.0 
511.82816 -621.29926 -5242.0 
541.3566 -621.29926 -5242.0 
570.8851 -621.29926 -5242.0 
591.365 -611.93585 -5163.0 
629.9424 -621.29926 -5242.0 
659.4708 -621.29926 -5242.0 
688.9993 -621.29926 -5242.0 
707.69916 -611.93585 -5163.0 
736.78265 -611.93585 -5163.0 
765.86646 -611.93585 -5163.0 
794.94995 -611.93585 -5163.0 
824.0334 -611.93585 -5163.0 
840.55884 -602.9281 -5087.0 
869.2142 -602.9281 -5087.0 
897.86993 -602.9281 -5087.0 
913.0472 -594.15735 -5013.0 
941.2857 -594.15735 -5013.0 
1817.2488 -1052.3685 -8879.0 
1916.4751 -1080.1029 -9113.0 
1917.2804 -1052.3685 -8879.0 
1967.2964 -1052.3685 -8879.0 
2017.3121 -1052.3685 -8879.0 
2015.6396 -1026.0564 -8657.0 
2064.405 -1026.0564 -8657.0 
2167.3606 -1052.3685 -8879.0 
2217.3765 -1052.3685 -8879.0 
2210.7012 -1026.0564 -8657.0 
2259.467 -1026.0564 -8657.0 
2367.4246 -1052.3685 -8879.0 
2481.1506 -1080.1029 -9113.0 
2467.4563 -1052.3685 -8879.0 
2517.4724 -1052.3685 -8879.0 
2567.4888 -1052.3685 -8879.0 
2617.505 -1052.3685 -8879.0 
2667.5205 -1052.3685 -8879.0 
2717.5364 -1052.3685 -8879.0 
2632.2761 -1000.92944 -8445.0 
2679.848 -1000.92944 -8445.0 
2662.5037 -977.1062 -8244.0 
2708.9424 -977.1062 -8244.0 
2755.381 -977.1062 -8244.0 
2942.183 -1026.0564 -8657.0 
3067.649 -1052.3685 -8879.0 
3012.8464 -1000.92944 -8445.0 
3137.245 -1026.0564 -8657.0 
3250.703 -1000.92944 -8445.0 
-1979.6292 -420.927 -3390.0 
-1960.533 -420.927 -3390.0 
-1980.3802 -429.37033 -3458.0 
-1941.054 -425.02448 -3423.0 
-5044.0747 -1162.2054 -9360.0 
-4859.633 -1131.5361 -9113.0 
-4808.299 -1131.5361 -9113.0 
-4634.817 -1102.4811 -8879.0 
-4584.8013 -1102.4811 -8879.0 
-4448.9595 -1131.5361 -9113.0 
-4284.705 -1102.4811 -8879.0 
-4128.8096 -1074.9159 -8657.0 
-3980.1287 -1048.5924 -8445.0 
-4031.2788 -1074.9159 -8657.0 
-3982.5134 -1074.9159 -8657.0 
-4034.6252 -1102.4811 -8879.0 
-3984.609 -1102.4811 -8879.0 
-3934.593 -1102.4811 -8879.0 
-3884.5767 -1102.4811 -8879.0 
-3834.5608 -1102.4811 -8879.0 
-3784.5452 -1102.4811 -8879.0 
-3641.155 -1074.9159 -8657.0 
-3592.3896 -1074.9159 -8657.0 
-3543.624 -1074.9159 -8657.0 
-3409.2737 -1048.5924 -8445.0 
-3361.7024 -1048.5924 -8445.0 
-3314.131 -1048.5924 -8445.0 
-3123.8462 -1048.5924 -8445.0 
-2910.178 -1023.6348 -8244.0 
-2933.561 -1048.5924 -8445.0 
-2958.4387 -1074.9159 -8657.0 
-2838.4185 -1048.5924 -8445.0 
-2860.9077 -1074.9159 -8657.0 
-2884.2563 -1102.4811 -8879.0 
-2763.3767 -1074.9159 -8657.0 
-2714.6113 -1074.9159 -8657.0 
-2600.5623 -1048.5924 -8445.0 
-2433.8816 -999.6706 -8051.0 
-2388.5298 -999.6706 -8051.0 
-2422.0183 -1074.9159 -8657.0 
-2260.032 -1023.6348 -8244.0 
-2213.5928 -1023.6348 -8244.0 
-2167.154 -1023.6348 -8244.0 
-2226.9565 -1074.9159 -8657.0 
-2025.7151 -999.6706 -8051.0 
-2077.2783 -1048.5924 -8445.0 
-1981.3978 -1023.6348 -8244.0 
-1934.9589 -1023.6348 -8244.0 
-1934.5647 -1048.5924 -8445.0 
-1886.9933 -1048.5924 -8445.0 
-1933.9525 -1102.4811 -8879.0 
-1883.9364 -1102.4811 -8879.0 
-324.47415 -200.5301 -1615.0 
-315.3767 -200.5301 -1615.0 
-306.27933 -200.5301 -1615.0 
-295.70975 -199.53677 -1607.0 
-286.65744 -199.53677 -1607.0 
-276.3959 -198.6676 -1600.0 
-267.38293 -198.6676 -1600.0 
-258.3701 -198.6676 -1600.0 
-592.21204 -631.63885 -5087.0 
-571.9761 -641.0755 -5163.0 
-542.89264 -641.0755 -5163.0 
-513.80896 -641.0755 -5163.0 
-484.7255 -641.0755 -5163.0 
-455.64206 -641.0755 -5163.0 
-426.5584 -641.0755 -5163.0 
-397.47498 -641.0755 -5163.0 
-368.39133 -641.0755 -5163.0 
-339.30786 -641.0755 -5163.0 
-310.2244 -641.0755 -5163.0 
-281.14075 -641.0755 -5163.0 
-252.0573 -641.0755 -5163.0 
-222.97366 -641.0755 -5163.0 
-196.85695 -650.88477 -5242.0 
-164.80673 -641.0755 -5163.0 
-135.72311 -641.0755 -5163.0 
-106.63965 -641.0755 -5163.0 
-77.55601 -641.0755 -5163.0 
-48.47255 -641.0755 -5163.0 
-19.685772 -650.88477 -5242.0 
9.842698 -650.88477 -5242.0 
39.371544 -650.88477 -5242.0 
67.86165 -641.0755 -5163.0 
96.9451 -641.0755 -5163.0 
126.02856 -641.0755 -5163.0 
155.11201 -641.0755 -5163.0 
184.19585 -641.0755 -5163.0 
213.2793 -641.0755 -5163.0 
242.36275 -641.0755 -5163.0 
271.44623 -641.0755 -5163.0 
305.12814 -650.88477 -5242.0 
334.65698 -650.88477 -5242.0 
364.18546 -650.88477 -5242.0 
387.7804 -641.0755 -5163.0 
416.86386 -641.0755 -5163.0 
445.94733 -641.0755 -5163.0 
475.03113 -641.0755 -5163.0 
511.82816 -650.88477 -5242.0 
533.19806 -641.0755 -5163.0 
562.2815 -641.0755 -5163.0 
591.365 -641.0755 -5163.0 
620.4488 -641.0755 -5163.0 
649.5323 -641.0755 -5163.0 
678.6157 -641.0755 -5163.0 
707.69916 -641.0755 -5163.0 
736.78265 -641.0755 -5163.0 
765.86646 -641.0755 -5163.0 
794.94995 -641.0755 -5163.0 
811.9035 -631.63885 -5087.0 
840.55884 -631.63885 -5087.0 
856.5698 -622.4504 -5013.0 
897.86993 -631.63885 -5087.0 
926.5252 -631.63885 -5087.0 
969.451 -641.0755 -5163.0 
1817.2488 -1102.4811 -8879.0 
1916.4751 -1131.5361 -9113.0 
1967.8091 -1131.5361 -9113.0 
2019.1431 -1131.5361 -9113.0 
2070.477 -1131.5361 -9113.0 
2067.3289 -1102.4811 -8879.0 
2117.3445 -1102.4811 -8879.0 
2167.3606 -1102.4811 -8879.0 
2217.3765 -1102.4811 -8879.0 
2267.392 -1102.4811 -8879.0 
2317.409 -1102.4811 -8879.0 
2367.4246 -1102.4811 -8879.0 
2417.4407 -1102.4811 -8879.0 
2467.4563 -1102.4811 -8879.0 
2583.8186 -1131.5361 -9113.0 
2635.1533 -1131.5361 -9113.0 
2686.4873 -1131.5361 -9113.0 
2737.8213 -1131.5361 -9113.0 
2789.1553 -1131.5361 -9113.0 
2767.5525 -1102.4811 -8879.0 
2616.0647 -1023.6348 -8244.0 
2662.5037 -1023.6348 -8244.0 
2708.9424 -1023.6348 -8244.0 
2822.5615 -1048.5924 -8445.0 
3017.6326 -1102.4811 -8879.0 
3067.649 -1102.4811 -8879.0 
3117.665 -1102.4811 -8879.0 
3167.6807 -1102.4811 -8879.0 
3217.6965 -1102.4811 -8879.0 
-1960.3584 -435.77634 -3357.0 
-1960.533 -440.0601 -3390.0 
-1980.3802 -448.88727 -3458.0 
-1960.9011 -448.88727 -3458.0 
-5044.0747 -1215.0332 -9360.0 
-4859.633 -1182.9698 -9113.0 
-5221.9614 -1284.7418 -9897.0 
-4756.9644 -1182.9698 -9113.0 
-4705.6304 -1182.9698 -9113.0 
-4500.2935 -1182.9698 -9113.0 
-4448.9595 -1182.9698 -9113.0 
-4397.6255 -1182.9698 -9113.0 
-4234.689 -1152.594 -8879.0 
-4184.673 -1152.594 -8879.0 
-4134.6567 -1152.594 -8879.0 
-4084.6409 -1152.594 -8879.0 
-4034.6252 -1152.594 -8879.0 
-3984.609 -1152.594 -8879.0 
-3934.593 -1152.594 -8879.0 
-3884.5767 -1152.594 -8879.0 
-3834.5608 -1152.594 -8879.0 
-3784.5452 -1152.594 -8879.0 
-3734.5288 -1152.594 -8879.0 
-3684.513 -1152.594 -8879.0 
-3543.624 -1123.7759 -8657.0 
-3584.4807 -1152.594 -8879.0 
-3534.465 -1152.594 -8879.0 
-3397.3276 -1123.7759 -8657.0 
-3434.4329 -1152.594 -8879.0 
-3202.266 -1123.7759 -8657.0 
-2981.1323 -1096.256 -8445.0 
-3007.204 -1123.7759 -8657.0 
-3034.305 -1152.594 -8879.0 
-2834.2407 -1152.594 -8879.0 
-2714.6113 -1123.7759 -8657.0 
-2538.666 -1070.1638 -8244.0 
-2492.227 -1070.1638 -8244.0 
-2260.032 -1070.1638 -8244.0 
-2267.5632 -1096.256 -8445.0 
-2219.9922 -1096.256 -8445.0 
-2284.0647 -1152.594 -8879.0 
-2234.0483 -1152.594 -8879.0 
-2184.0327 -1152.594 -8879.0 
-2080.66 -1123.7759 -8657.0 
-1888.52 -1070.1638 -8244.0 
-1886.9933 -1096.256 -8445.0 
-1933.9525 -1152.594 -8879.0 
-1883.9364 -1152.594 -8879.0 
-324.47415 -209.64514 -1615.0 
-315.3767 -209.64514 -1615.0 
-306.27933 -209.64514 -1615.0 
-295.70975 -208.60666 -1607.0 
-285.40878 -207.69798 -1600.0 
-275.01392 -206.6595 -1592.0 
-267.38293 -207.69798 -1600.0 
-255.94786 -205.75081 -1585.0 
-630.1432 -670.21545 -5163.0 
-601.0597 -670.21545 -5163.0 
-580.72797 -680.47046 -5242.0 
-542.89264 -670.21545 -5163.0 
-513.80896 -670.21545 -5163.0 
-484.7255 -670.21545 -5163.0 
-455.64206 -670.21545 -5163.0 
-426.5584 -670.21545 -5163.0 
-397.47498 -670.21545 -5163.0 
-362.96854 -660.34973 -5087.0 
-339.30786 -670.21545 -5163.0 
-310.2244 -670.21545 -5163.0 
-281.14075 -670.21545 -5163.0 
-252.0573 -670.21545 -5163.0 
-222.97366 -670.21545 -5163.0 
-196.85695 -680.47046 -5242.0 
-167.32849 -680.47046 -5242.0 
-135.72311 -670.21545 -5163.0 
-106.63965 -670.21545 -5163.0 
-77.55601 -670.21545 -5163.0 
-48.47255 -670.21545 -5163.0 
-19.389093 -670.21545 -5163.0 
9.694362 -670.21545 -5163.0 
38.778187 -670.21545 -5163.0 
67.86165 -670.21545 -5163.0 
96.9451 -670.21545 -5163.0 
126.02856 -670.21545 -5163.0 
155.11201 -670.21545 -5163.0 
184.19585 -670.21545 -5163.0 
213.2793 -670.21545 -5163.0 
242.36275 -670.21545 -5163.0 
271.44623 -670.21545 -5163.0 
305.12814 -680.47046 -5242.0 
334.65698 -680.47046 -5242.0 
364.18546 -680.47046 -5242.0 
387.7804 -670.21545 -5163.0 
416.86386 -670.21545 -5163.0 
445.94733 -670.21545 -5163.0 
475.03113 -670.21545 -5163.0 
511.82816 -680.47046 -5242.0 
533.19806 -670.21545 -5163.0 
562.2815 -670.21545 -5163.0 
591.365 -670.21545 -5163.0 
611.31573 -660.34973 -5087.0 
639.971 -660.34973 -5087.0 
668.6264 -660.34973 -5087.0 
697.2818 -660.34973 -5087.0 
715.37695 -650.7438 -5013.0 
754.59283 -660.34973 -5087.0 
783.2481 -660.34973 -5087.0 
811.9035 -660.34973 -5087.0 
840.55884 -660.34973 -5087.0 
869.2142 -660.34973 -5087.0 
897.86993 -660.34973 -5087.0 
926.5252 -660.34973 -5087.0 
955.1806 -660.34973 -5087.0 
1865.141 -1182.9698 -9113.0 
1916.4751 -1182.9698 -9113.0 
1967.8091 -1182.9698 -9113.0 
2019.1431 -1182.9698 -9113.0 
2070.477 -1182.9698 -9113.0 
2121.8118 -1182.9698 -9113.0 
2117.3445 -1152.594 -8879.0 
2167.3606 -1152.594 -8879.0 
2275.8137 -1182.9698 -9113.0 
2327.148 -1182.9698 -9113.0 
2378.4824 -1182.9698 -9113.0 
2429.8167 -1182.9698 -9113.0 
2417.4407 -1152.594 -8879.0 
2532.4846 -1182.9698 -9113.0 
2583.8186 -1182.9698 -9113.0 
2706.577 -1215.0332 -9360.0 
2836.2441 -1248.914 -9621.0 
2737.8213 -1182.9698 -9113.0 
2789.1553 -1182.9698 -9113.0 
2767.5525 -1152.594 -8879.0 
2747.1218 -1123.7759 -8657.0 
2943.158 -1182.9698 -9113.0 
2774.9902 -1096.256 -8445.0 
2893.4177 -1123.7759 -8657.0 
3017.6326 -1152.594 -8879.0 
3148.4949 -1182.9698 -9113.0 
3199.8289 -1182.9698 -9113.0 
3251.1628 -1182.9698 -9113.0 
3392.0083 -1215.0332 -9360.0 
3353.8308 -1182.9698 -9113.0 
-1960.3584 -454.72302 -3357.0 
-1941.4481 -454.72302 -3357.0 
-2000.4246 -473.1449 -3493.0 
-2000.5955 -477.88583 -3528.0 
-5044.0747 -1267.8604 -9360.0 
-5076.335 -1303.2142 -9621.0 
-5022.139 -1303.2142 -9621.0 
-4833.1724 -1267.8604 -9360.0 
-4780.447 -1267.8604 -9360.0 
-4727.721 -1267.8604 -9360.0 
-4622.2705 -1267.8604 -9360.0 
-4696.965 -1303.2142 -9621.0 
-4642.769 -1303.2142 -9621.0 
-4588.573 -1303.2142 -9621.0 
-4411.368 -1267.8604 -9360.0 
-4243.623 -1234.4031 -9113.0 
-4192.289 -1234.4031 -9113.0 
-4140.955 -1234.4031 -9113.0 
-4089.6206 -1234.4031 -9113.0 
-4038.2864 -1234.4031 -9113.0 
-3884.5767 -1202.7064 -8879.0 
-3834.5608 -1202.7064 -8879.0 
-3884.2842 -1234.4031 -9113.0 
-3832.95 -1234.4031 -9113.0 
-3684.513 -1202.7064 -8879.0 
-3634.4966 -1202.7064 -8879.0 
-3584.4807 -1202.7064 -8879.0 
-3534.465 -1202.7064 -8879.0 
-3484.4487 -1202.7064 -8879.0 
-3084.3208 -1202.7064 -8879.0 
-3114.272 -1234.4031 -9113.0 
-1934.3636 -1172.6355 -8657.0 
-1933.9525 -1202.7064 -8879.0 
-1883.9364 -1202.7064 -8879.0 
-331.91916 -217.67645 -1607.0 
-324.47415 -218.7601 -1615.0 
-315.3767 -218.7601 -1615.0 
-306.27933 -218.7601 -1615.0 
-295.70975 -217.67645 -1607.0 
-273.8047 -214.69646 -1585.0 
-264.87622 -214.69646 -1585.0 
-255.94786 -214.69646 -1585.0 
-630.1432 -699.35504 -5163.0 
-601.0597 -699.35504 -5163.0 
-580.72797 -710.056 -5242.0 
-542.89264 -699.35504 -5163.0 
-506.24564 -689.0604 -5087.0 
-484.7255 -699.35504 -5163.0 
-455.64206 -699.35504 -5163.0 
-426.5584 -699.35504 -5163.0 
-397.47498 -699.35504 -5163.0 
-362.96854 -689.0604 -5087.0 
-339.30786 -699.35504 -5163.0 
-310.2244 -699.35504 -5163.0 
-281.14075 -699.35504 -5163.0 
-248.34698 -689.0604 -5087.0 
-222.97366 -699.35504 -5163.0 
-196.85695 -710.056 -5242.0 
-167.32849 -710.056 -5242.0 
-137.79982 -710.056 -5242.0 
-106.63965 -699.35504 -5163.0 
-77.55601 -699.35504 -5163.0 
-48.47255 -699.35504 -5163.0 
-19.389093 -699.35504 -5163.0 
9.694362 -699.35504 -5163.0 
38.778187 -699.35504 -5163.0 
67.86165 -699.35504 -5163.0 
96.9451 -699.35504 -5163.0 
127.95695 -710.056 -5242.0 
155.11201 -699.35504 -5163.0 
184.19585 -699.35504 -5163.0 
213.2793 -699.35504 -5163.0 
242.36275 -699.35504 -5163.0 
271.44623 -699.35504 -5163.0 
300.52966 -699.35504 -5163.0 
329.61346 -699.35504 -5163.0 
358.69693 -699.35504 -5163.0 
387.7804 -699.35504 -5163.0 
416.86386 -699.35504 -5163.0 
445.94733 -699.35504 -5163.0 
475.03113 -699.35504 -5163.0 
504.1146 -699.35504 -5163.0 
533.19806 -699.35504 -5163.0 
562.2815 -699.35504 -5163.0 
591.365 -699.35504 -5163.0 
611.31573 -689.0604 -5087.0 
649.5323 -699.35504 -5163.0 
678.6157 -699.35504 -5163.0 
697.2818 -689.0604 -5087.0 
715.37695 -679.0368 -5013.0 
754.59283 -689.0604 -5087.0 
783.2481 -689.0604 -5087.0 
811.9035 -689.0604 -5087.0 
840.55884 -689.0604 -5087.0 
856.5698 -679.0368 -5013.0 
897.86993 -689.0604 -5087.0 
926.5252 -689.0604 -5087.0 
955.1806 -689.0604 -5087.0 
1915.6941 -1267.8604 -9360.0 
1968.4194 -1267.8604 -9360.0 
1967.8091 -1234.4031 -9113.0 
2073.87 -1267.8604 -9360.0 
2126.5955 -1267.8604 -9360.0 
2179.3218 -1267.8604 -9360.0 
2337.4978 -1267.8604 -9360.0 
2390.2231 -1267.8604 -9360.0 
2378.4824 -1234.4031 -9113.0 
2495.6746 -1267.8604 -9360.0 
2548.4 -1267.8604 -9360.0 
2532.4846 -1234.4031 -9113.0 
2653.8508 -1267.8604 -9360.0 
2706.577 -1267.8604 -9360.0 
2737.8213 -1234.4031 -9113.0 
2789.1553 -1234.4031 -9113.0 
2840.4893 -1234.4031 -9113.0 
2817.5688 -1202.7064 -8879.0 
2943.158 -1234.4031 -9113.0 
2994.492 -1234.4031 -9113.0 
3045.826 -1234.4031 -9113.0 
3199.8289 -1234.4031 -9113.0 
3251.1628 -1234.4031 -9113.0 
3486.593 -1303.2142 -9621.0 
2053.591 -755.83984 -5580.0 
2051.768 -743.7843 -5491.0 
2544.729 -781.17 -5767.0 
2837.1023 -781.17 -5767.0 
-1960.3584 -473.6699 -3357.0 
-1979.6178 -482.98242 -3423.0 
-2000.4246 -492.85938 -3493.0 
-2021.5767 -503.0185 -3565.0 
-4967.9434 -1357.515 -9621.0 
-4913.748 -1357.515 -9621.0 
-4859.552 -1357.515 -9621.0 
-4831.708 -1396.4584 -9897.0 
-4642.769 -1357.515 -9621.0 
-4720.207 -1396.4584 -9897.0 
-4664.4565 -1396.4584 -9897.0 
-4608.7056 -1396.4584 -9897.0 
-4305.9175 -1320.6881 -9360.0 
-4253.192 -1320.6881 -9360.0 
-4089.6206 -1285.8367 -9113.0 
-4038.2864 -1285.8367 -9113.0 
-3986.9521 -1285.8367 -9113.0 
-4042.2896 -1320.6881 -9360.0 
-3989.5642 -1320.6881 -9360.0 
-4046.6157 -1357.515 -9621.0 
-1983.9684 -1252.8195 -8879.0 
-1933.9525 -1252.8195 -8879.0 
-1836.8326 -1221.4955 -8657.0 
-331.91916 -226.74635 -1607.0 
-322.86682 -226.74635 -1607.0 
-313.81445 -226.74635 -1607.0 
-301.91742 -224.62987 -1592.0 
-292.94955 -224.62987 -1592.0 
-282.73306 -223.64217 -1585.0 
-273.8047 -223.64217 -1585.0 
-264.87622 -223.64217 -1585.0 
-254.81749 -222.65448 -1578.0 
-603.17017 -697.3121 -4942.0 
-601.0597 -728.495 -5163.0 
-571.9761 -728.495 -5163.0 
-542.89264 -728.495 -5163.0 
-506.24564 -717.7714 -5087.0 
-477.5903 -717.7714 -5087.0 
-455.64206 -728.495 -5163.0 
-426.5584 -728.495 -5163.0 
-397.47498 -728.495 -5163.0 
-368.39133 -728.495 -5163.0 
-339.30786 -728.495 -5163.0 
-310.2244 -728.495 -5163.0 
-281.14075 -728.495 -5163.0 
-248.34698 -717.7714 -5087.0 
-219.69145 -717.7714 -5087.0 
-196.85695 -739.6418 -5242.0 
-164.80673 -728.495 -5163.0 
-135.72311 -728.495 -5163.0 
-106.63965 -728.495 -5163.0 
-78.74271 -739.6418 -5242.0 
-48.47255 -728.495 -5163.0 
-19.389093 -728.495 -5163.0 
9.694362 -728.495 -5163.0 
38.778187 -728.495 -5163.0 
67.86165 -728.495 -5163.0 
98.428474 -739.6418 -5242.0 
126.02856 -728.495 -5163.0 
155.11201 -728.495 -5163.0 
184.19585 -728.495 -5163.0 
213.2793 -728.495 -5163.0 
242.36275 -728.495 -5163.0 
271.44623 -728.495 -5163.0 
300.52966 -728.495 -5163.0 
329.61346 -728.495 -5163.0 
358.69693 -728.495 -5163.0 
387.7804 -728.495 -5163.0 
416.86386 -728.495 -5163.0 
445.94733 -728.495 -5163.0 
468.03864 -717.7714 -5087.0 
496.69397 -717.7714 -5087.0 
533.19806 -728.495 -5163.0 
562.2815 -728.495 -5163.0 
582.66 -717.7714 -5087.0 
611.31573 -717.7714 -5087.0 
649.5323 -728.495 -5163.0 
678.6157 -728.495 -5163.0 
707.69916 -728.495 -5163.0 
725.9371 -717.7714 -5087.0 
754.59283 -717.7714 -5087.0 
794.94995 -728.495 -5163.0 
811.9035 -717.7714 -5087.0 
840.55884 -717.7714 -5087.0 
856.5698 -707.3301 -5013.0 
884.80865 -707.3301 -5013.0 
913.0472 -707.3301 -5013.0 
927.9541 -697.3121 -4942.0 
2192.8518 -1396.4584 -9897.0 
2248.6023 -1396.4584 -9897.0 
2390.2231 -1320.6881 -9360.0 
2378.4824 -1285.8367 -9113.0 
2429.8167 -1285.8367 -9113.0 
2548.4 -1320.6881 -9360.0 
2601.1255 -1320.6881 -9360.0 
2653.8508 -1320.6881 -9360.0 
2706.577 -1320.6881 -9360.0 
2737.8213 -1285.8367 -9113.0 
2789.1553 -1285.8367 -9113.0 
2840.4893 -1285.8367 -9113.0 
2970.2043 -1320.6881 -9360.0 
3107.223 -1357.515 -9621.0 
3075.6553 -1320.6881 -9360.0 
3307.8613 -1396.4584 -9897.0 
1959.294 -787.3333 -5580.0 
2023.5482 -800.31445 -5672.0 
2055.499 -800.31445 -5672.0 
2053.591 -787.3333 -5580.0 
2051.768 -774.7755 -5491.0 
2082.6992 -774.7755 -5491.0 
2183.302 -800.31445 -5672.0 
2247.2034 -800.31445 -5672.0 
2279.1545 -800.31445 -5672.0 
2349.8137 -813.7189 -5767.0 
2382.2996 -813.7189 -5767.0 
2512.2434 -813.7189 -5767.0 
2544.729 -813.7189 -5767.0 
2577.2148 -813.7189 -5767.0 
2653.5955 -827.40546 -5864.0 
2818.757 -827.40546 -5864.0 
2851.7898 -827.40546 -5864.0 
2884.8218 -827.40546 -5864.0 
2968.6082 -841.7976 -5966.0 
3002.2148 -841.7976 -5966.0 
2983.9187 -827.40546 -5864.0 
3016.9512 -827.40546 -5864.0 
-1960.3584 -492.61673 -3357.0 
-1979.6178 -502.30182 -3423.0 
-2000.4246 -512.57385 -3493.0 
-2000.5955 -517.70984 -3528.0 
-4998.959 -1452.3169 -9897.0 
-4775.9575 -1452.3169 -9897.0 
-4720.207 -1452.3169 -9897.0 
-4162.702 -1452.3169 -9897.0 
-1983.1293 -1270.3555 -8657.0 
-1934.3636 -1270.3555 -8657.0 
-1885.5983 -1270.3555 -8657.0 
-1836.8326 -1270.3555 -8657.0 
-328.82095 -233.6151 -1592.0 
-319.85312 -233.6151 -1592.0 
-309.5183 -232.58789 -1585.0 
-300.5899 -232.58789 -1585.0 
-291.66147 -232.58789 -1585.0 
-282.73306 -232.58789 -1585.0 
-272.59546 -231.5607 -1578.0 
-263.70642 -231.5607 -1578.0 
-252.39526 -229.35954 -1563.0 
-178.81613 -225.39748 -1536.0 
-571.9761 -757.6349 -5163.0 
-534.9011 -746.4824 -5087.0 
-513.80896 -757.6349 -5163.0 
-477.5903 -746.4824 -5087.0 
-455.64206 -757.6349 -5163.0 
-426.5584 -757.6349 -5163.0 
-116.17077 -221.43541 -1509.0 
-107.170975 -220.40822 -1502.0 
-97.85578 -218.50055 -1489.0 
-89.88876 -219.52776 -1496.0 
-81.46166 -219.52776 -1496.0 
-73.034615 -219.52776 -1496.0 
-64.30521 -218.50055 -1489.0 
-55.69227 -217.62009 -1483.0 
-47.338448 -217.62009 -1483.0 
-137.79982 -769.2276 -5242.0 
-106.63965 -757.6349 -5163.0 
-78.74271 -769.2276 -5242.0 
67.86165 -757.6349 -5163.0 
98.428474 -769.2276 -5242.0 
126.02856 -757.6349 -5163.0 
155.11201 -757.6349 -5163.0 
184.19585 -757.6349 -5163.0 
213.2793 -757.6349 -5163.0 
242.36275 -757.6349 -5163.0 
271.44623 -757.6349 -5163.0 
300.52966 -757.6349 -5163.0 
324.76157 -746.4824 -5087.0 
353.4169 -746.4824 -5087.0 
382.07224 -746.4824 -5087.0 
410.72757 -746.4824 -5087.0 
439.3829 -746.4824 -5087.0 
468.03864 -746.4824 -5087.0 
496.69397 -746.4824 -5087.0 
525.3493 -746.4824 -5087.0 
554.00464 -746.4824 -5087.0 
582.66 -746.4824 -5087.0 
611.31573 -746.4824 -5087.0 
639.971 -746.4824 -5087.0 
678.6157 -757.6349 -5163.0 
707.69916 -757.6349 -5163.0 
736.78265 -757.6349 -5163.0 
754.59283 -746.4824 -5087.0 
783.2481 -746.4824 -5087.0 
811.9035 -746.4824 -5087.0 
840.55884 -746.4824 -5087.0 
856.5698 -735.6234 -5013.0 
884.80865 -735.6234 -5013.0 
913.0472 -735.6234 -5013.0 
941.2857 -735.6234 -5013.0 
2378.4824 -1337.2703 -9113.0 
2495.6746 -1373.5159 -9360.0 
2619.4612 -1411.8158 -9621.0 
2750.3567 -1452.3169 -9897.0 
2917.4783 -1373.5159 -9360.0 
3053.0276 -1411.8158 -9621.0 
3107.223 -1411.8158 -9621.0 
3161.4187 -1411.8158 -9621.0 
3307.8613 -1452.3169 -9897.0 
1959.294 -818.8268 -5580.0 
2023.5482 -832.32715 -5672.0 
2055.499 -832.32715 -5672.0 
2053.591 -818.8268 -5580.0 
2085.024 -818.8268 -5580.0 
2116.4565 -818.8268 -5580.0 
2183.302 -832.32715 -5672.0 
2252.356 -846.26776 -5767.0 
2247.2034 -832.32715 -5672.0 
2242.1865 -818.8268 -5580.0 
2311.1052 -832.32715 -5672.0 
2343.056 -832.32715 -5672.0 
2375.0066 -832.32715 -5672.0 
2406.9573 -832.32715 -5672.0 
2438.9084 -832.32715 -5672.0 
2470.8591 -832.32715 -5672.0 
2544.729 -846.26776 -5767.0 
2577.2148 -846.26776 -5767.0 
2566.711 -832.32715 -5672.0 
2556.512 -818.8268 -5580.0 
2630.6128 -832.32715 -5672.0 
2619.3767 -818.8268 -5580.0 
2650.809 -818.8268 -5580.0 
2772.1301 -846.26776 -5767.0 
2851.7898 -860.50183 -5864.0 
2837.1023 -846.26776 -5767.0 
2968.6082 -875.46967 -5966.0 
3002.2148 -875.46967 -5966.0 
2983.9187 -860.50183 -5864.0 
3016.9512 -860.50183 -5864.0 
3103.0356 -875.46967 -5966.0 
3136.6426 -875.46967 -5966.0 
3096.9893 -846.26776 -5767.0 
3129.4756 -846.26776 -5767.0 
3161.9614 -846.26776 -5767.0 
3194.4473 -846.26776 -5767.0 
3122.2969 -818.8268 -5580.0 
-1979.6292 -516.59216 -3390.0 
-1979.6178 -521.621 -3423.0 
-2000.4246 -532.2881 -3493.0 
-4696.965 -1466.1161 -9621.0 
-4642.769 -1466.1161 -9621.0 
-1983.9684 -1353.0449 -8879.0 
-1933.9525 -1353.0449 -8879.0 
-336.30353 -241.53351 -1585.0 
-327.37515 -241.53351 -1585.0 
-318.44678 -241.53351 -1585.0 
-309.5183 -241.53351 -1585.0 
-300.5899 -241.53351 -1585.0 
-290.37335 -240.46681 -1578.0 
-281.4844 -240.46681 -1578.0 
-271.38623 -239.4001 -1571.0 
-262.53665 -239.4001 -1571.0 
-252.39526 -238.181 -1563.0 
-242.4998 -237.1143 -1556.0 
-214.25937 -234.9809 -1542.0 
-204.7733 -234.06656 -1536.0 
-195.2271 -232.99985 -1529.0 
-186.61415 -232.99985 -1529.0 
-178.81613 -234.06656 -1536.0 
-170.16371 -234.06656 -1536.0 
-160.77528 -232.99985 -1529.0 
-151.46567 -231.93315 -1522.0 
-142.23497 -230.86644 -1515.0 
-133.70088 -230.86644 -1515.0 
-124.09272 -228.88539 -1502.0 
-116.17077 -229.95212 -1509.0 
-107.170975 -228.88539 -1502.0 
-98.71013 -228.88539 -1502.0 
-90.24929 -228.88539 -1502.0 
-81.46166 -227.97107 -1496.0 
-73.034615 -227.97107 -1496.0 
-64.04609 -225.99004 -1483.0 
-55.69227 -225.99004 -1483.0 
-47.338448 -225.99004 -1483.0 
96.9451 -786.7745 -5163.0 
126.02856 -786.7745 -5163.0 
155.11201 -786.7745 -5163.0 
184.19585 -786.7745 -5163.0 
213.2793 -786.7745 -5163.0 
242.36275 -786.7745 -5163.0 
271.44623 -786.7745 -5163.0 
300.52966 -786.7745 -5163.0 
324.76157 -775.1931 -5087.0 
353.4169 -775.1931 -5087.0 
382.07224 -775.1931 -5087.0 
410.72757 -775.1931 -5087.0 
445.94733 -786.7745 -5163.0 
468.03864 -775.1931 -5087.0 
504.1146 -786.7745 -5163.0 
525.3493 -775.1931 -5087.0 
554.00464 -775.1931 -5087.0 
582.66 -775.1931 -5087.0 
611.31573 -775.1931 -5087.0 
639.971 -775.1931 -5087.0 
678.6157 -786.7745 -5163.0 
697.2818 -775.1931 -5087.0 
725.9371 -775.1931 -5087.0 
743.61584 -763.91644 -5013.0 
771.8544 -763.91644 -5013.0 
800.09283 -763.91644 -5013.0 
828.3313 -763.91644 -5013.0 
856.5698 -763.91644 -5013.0 
872.277 -753.097 -4942.0 
900.1155 -753.097 -4942.0 
941.2857 -763.91644 -5013.0 
983.83594 -775.1931 -5087.0 
1959.647 -864.3395 -5672.0 
1959.294 -850.31995 -5580.0 
2023.5482 -864.3395 -5672.0 
2055.499 -864.3395 -5672.0 
2087.4495 -864.3395 -5672.0 
2085.024 -850.31995 -5580.0 
2116.4565 -850.31995 -5580.0 
2183.302 -864.3395 -5672.0 
2215.2527 -864.3395 -5672.0 
2210.7537 -850.31995 -5580.0 
2206.424 -836.7575 -5491.0 
2311.1052 -864.3395 -5672.0 
2343.056 -864.3395 -5672.0 
2455.4016 -893.59784 -5864.0 
2447.2712 -878.8163 -5767.0 
2479.7576 -878.8163 -5767.0 
2470.8591 -864.3395 -5672.0 
2544.729 -878.8163 -5767.0 
2534.7603 -864.3395 -5672.0 
2525.0789 -850.31995 -5580.0 
2556.512 -850.31995 -5580.0 
2587.944 -850.31995 -5580.0 
2739.6445 -878.8163 -5767.0 
2772.1301 -878.8163 -5767.0 
2851.7898 -893.59784 -5864.0 
2884.8218 -893.59784 -5864.0 
2968.6082 -909.14136 -5966.0 
3002.2148 -909.14136 -5966.0 
2983.9187 -893.59784 -5864.0 
3016.9512 -893.59784 -5864.0 
3049.9834 -893.59784 -5864.0 
3083.0156 -893.59784 -5864.0 
3116.048 -893.59784 -5864.0 
3260.2432 -925.142 -6071.0 
3294.442 -925.142 -6071.0 
3271.07 -909.14136 -5966.0 
3194.4473 -878.8163 -5767.0 
-1979.6292 -535.72534 -3390.0 
-1979.6178 -540.94037 -3423.0 
-1980.3802 -546.47144 -3458.0 
-368.1285 -253.95592 -1607.0 
-359.07614 -253.95592 -1607.0 
-350.02386 -253.95592 -1607.0 
-339.4862 -252.84972 -1600.0 
-327.37515 -250.47926 -1585.0 
-318.44678 -250.47926 -1585.0 
-308.15134 -249.37303 -1578.0 
-299.2624 -249.37303 -1578.0 
-290.37335 -249.37303 -1578.0 
-281.4844 -249.37303 -1578.0 
-271.38623 -248.26682 -1571.0 
-261.1997 -247.00256 -1563.0 
-251.2649 -245.89635 -1556.0 
-241.40887 -244.79012 -1549.0 
-232.68326 -244.79012 -1549.0 
-223.95766 -244.79012 -1549.0 
-215.23201 -244.79012 -1549.0 
-205.5732 -243.6839 -1542.0 
-195.2271 -241.6295 -1529.0 
-186.61415 -241.6295 -1529.0 
-178.0012 -241.6295 -1529.0 
-169.38823 -241.6295 -1529.0 
-160.03923 -240.52328 -1522.0 
-151.46567 -240.52328 -1522.0 
-142.23497 -239.41708 -1515.0 
-133.70088 -239.41708 -1515.0 
-124.67106 -238.46889 -1509.0 
-115.63188 -237.36266 -1502.0 
-107.170975 -237.36266 -1502.0 
-98.31581 -236.41447 -1496.0 
-89.88876 -236.41447 -1496.0 
-81.46166 -236.41447 -1496.0 
-72.69288 -235.30826 -1489.0 
-63.786964 -233.41188 -1477.0 
-55.46694 -233.41188 -1477.0 
-47.146923 -233.41188 -1477.0 
-38.984577 -234.36008 -1483.0 
155.11201 -815.9144 -5163.0 
184.19585 -815.9144 -5163.0 
213.2793 -815.9144 -5163.0 
242.36275 -815.9144 -5163.0 
267.45047 -803.90405 -5087.0 
300.52966 -815.9144 -5163.0 
329.61346 -815.9144 -5163.0 
358.69693 -815.9144 -5163.0 
382.07224 -803.90405 -5087.0 
410.72757 -803.90405 -5087.0 
439.3829 -803.90405 -5087.0 
475.03113 -815.9144 -5163.0 
504.1146 -815.9144 -5163.0 
533.19806 -815.9144 -5163.0 
554.00464 -803.90405 -5087.0 
574.18414 -792.2098 -5013.0 
602.423 -792.2098 -5013.0 
639.971 -803.90405 -5087.0 
668.6264 -803.90405 -5087.0 
687.1384 -792.2098 -5013.0 
715.37695 -792.2098 -5013.0 
743.61584 -792.2098 -5013.0 
771.8544 -792.2098 -5013.0 
800.09283 -792.2098 -5013.0 
828.3313 -792.2098 -5013.0 
856.5698 -792.2098 -5013.0 
872.277 -780.9895 -4942.0 
900.1155 -780.9895 -4942.0 
927.9541 -780.9895 -4942.0 
969.5242 -792.2098 -5013.0 
1959.647 -896.35223 -5672.0 
1991.5977 -896.35223 -5672.0 
1990.7263 -881.81335 -5580.0 
2022.1587 -881.81335 -5580.0 
2053.591 -881.81335 -5580.0 
2119.401 -896.35223 -5672.0 
2151.3513 -896.35223 -5672.0 
2183.302 -896.35223 -5672.0 
2215.2527 -896.35223 -5672.0 
2210.7537 -881.81335 -5580.0 
2206.424 -867.7486 -5491.0 
2273.6191 -881.81335 -5580.0 
2343.056 -896.35223 -5672.0 
2414.7854 -911.36523 -5767.0 
2406.9573 -896.35223 -5672.0 
2479.7576 -911.36523 -5767.0 
2470.8591 -896.35223 -5672.0 
2587.531 -926.6942 -5864.0 
2566.711 -896.35223 -5672.0 
2598.662 -896.35223 -5672.0 
2630.6128 -896.35223 -5672.0 
2662.5635 -896.35223 -5672.0 
2739.6445 -911.36523 -5767.0 
2818.757 -926.6942 -5864.0 
2851.7898 -926.6942 -5864.0 
2884.8218 -926.6942 -5864.0 
2968.6082 -942.81335 -5966.0 
2950.8865 -926.6942 -5864.0 
2934.5598 -911.36523 -5767.0 
3083.0156 -926.6942 -5864.0 
3014.0217 -896.35223 -5672.0 
3203.8562 -942.81335 -5966.0 
3294.442 -959.4066 -6071.0 
3271.07 -942.81335 -5966.0 
3194.4473 -911.36523 -5767.0 
3226.9329 -911.36523 -5767.0 
-1979.6292 -554.8583 -3390.0 
-1979.6178 -560.2595 -3423.0 
-1922.538 -549.457 -3357.0 
-406.35077 -264.33514 -1615.0 
-395.28555 -263.02573 -1607.0 
-386.2332 -263.02573 -1607.0 
-375.53787 -261.88 -1600.0 
-366.525 -261.88 -1600.0 
-357.51205 -261.88 -1600.0 
-346.75668 -260.57062 -1592.0 
-337.7888 -260.57062 -1592.0 
-327.37515 -259.4249 -1585.0 
-317.04037 -258.27914 -1578.0 
-308.15134 -258.27914 -1578.0 
-297.93484 -257.13342 -1571.0 
-287.61316 -255.82402 -1563.0 
-278.80872 -255.82402 -1563.0 
-270.00424 -255.82402 -1563.0 
-260.02994 -254.67831 -1556.0 
-251.2649 -254.67831 -1556.0 
-241.40887 -253.5326 -1549.0 
-232.68326 -253.5326 -1549.0 
-223.95766 -253.5326 -1549.0 
-214.25937 -252.38686 -1542.0 
-205.5732 -252.38686 -1542.0 
-195.2271 -250.2591 -1529.0 
-186.61415 -250.2591 -1529.0 
-178.0012 -250.2591 -1529.0 
-169.38823 -250.2591 -1529.0 
-160.03923 -249.11336 -1522.0 
-151.46567 -249.11336 -1522.0 
-142.23497 -247.96764 -1515.0 
-133.70088 -247.96764 -1515.0 
-124.67106 -246.9856 -1509.0 
-115.63188 -245.83984 -1502.0 
-107.170975 -245.83984 -1502.0 
-98.31581 -244.8578 -1496.0 
-89.88876 -244.8578 -1496.0 
-81.0805 -243.7121 -1489.0 
-72.399956 -242.73003 -1483.0 
-63.786964 -241.74797 -1477.0 
-55.46694 -241.74797 -1477.0 
-47.146923 -241.74797 -1477.0 
-38.826847 -241.74797 -1477.0 
-30.50683 -241.74797 -1477.0 
-22.367014 -243.7121 -1489.0 
-14.101447 -245.83984 -1502.0 
184.19585 -845.0541 -5163.0 
213.2793 -845.0541 -5163.0 
238.79515 -832.61475 -5087.0 
267.45047 -832.61475 -5087.0 
296.10583 -832.61475 -5087.0 
324.76157 -832.61475 -5087.0 
353.4169 -832.61475 -5087.0 
382.07224 -832.61475 -5087.0 
410.72757 -832.61475 -5087.0 
439.3829 -832.61475 -5087.0 
475.03113 -845.0541 -5163.0 
504.1146 -845.0541 -5163.0 
533.19806 -845.0541 -5163.0 
554.00464 -832.61475 -5087.0 
574.18414 -820.5028 -5013.0 
602.423 -820.5028 -5013.0 
639.971 -832.61475 -5087.0 
668.6264 -832.61475 -5087.0 
687.1384 -820.5028 -5013.0 
715.37695 -820.5028 -5013.0 
743.61584 -820.5028 -5013.0 
771.8544 -820.5028 -5013.0 
800.09283 -820.5028 -5013.0 
828.3313 -820.5028 -5013.0 
856.5698 -820.5028 -5013.0 
872.277 -808.88184 -4942.0 
900.1155 -808.88184 -4942.0 
927.9541 -808.88184 -4942.0 
955.79266 -808.88184 -4942.0 
1991.5977 -928.36456 -5672.0 
1990.7263 -913.3065 -5580.0 
2022.1587 -913.3065 -5580.0 
2053.591 -913.3065 -5580.0 
2085.024 -913.3065 -5580.0 
2151.3513 -928.36456 -5672.0 
2183.302 -928.36456 -5672.0 
2215.2527 -928.36456 -5672.0 
2210.7537 -913.3065 -5580.0 
2242.1865 -913.3065 -5580.0 
2311.1052 -928.36456 -5672.0 
2343.056 -928.36456 -5672.0 
2414.7854 -943.9137 -5767.0 
2406.9573 -928.36456 -5672.0 
2438.9084 -928.36456 -5672.0 
2470.8591 -928.36456 -5672.0 
2544.729 -943.9137 -5767.0 
2577.2148 -943.9137 -5767.0 
2566.711 -928.36456 -5672.0 
2598.662 -928.36456 -5672.0 
2587.944 -913.3065 -5580.0 
2662.5635 -928.36456 -5672.0 
2785.7249 -959.7902 -5864.0 
2818.757 -959.7902 -5864.0 
2901.3945 -976.4851 -5966.0 
2884.8218 -959.7902 -5864.0 
2917.8542 -959.7902 -5864.0 
2902.074 -943.9137 -5767.0 
2983.9187 -959.7902 -5864.0 
2999.532 -943.9137 -5767.0 
2982.071 -928.36456 -5672.0 
3170.2493 -976.4851 -5966.0 
3203.8562 -976.4851 -5966.0 
3294.442 -993.671 -6071.0 
3271.07 -976.4851 -5966.0 
3194.4473 -943.9137 -5767.0 
3173.7756 -928.36456 -5672.0 
-1960.3584 -568.4039 -3357.0 
-1960.533 -573.9914 -3390.0 
-1941.4369 -573.9914 -3390.0 
-415.44818 -273.45016 -1615.0 
-404.33786 -272.0956 -1607.0 
-395.28555 -272.0956 -1607.0 
-386.2332 -272.0956 -1607.0 
-375.53787 -270.9104 -1600.0 
-364.69235 -269.55585 -1592.0 
-355.7245 -269.55585 -1592.0 
-346.75668 -269.55585 -1592.0 
-336.30353 -268.3706 -1585.0 
-327.37515 -268.3706 -1585.0 
-317.04037 -267.18536 -1578.0 
-308.15134 -267.18536 -1578.0 
-297.93484 -266.00015 -1571.0 
-287.61316 -264.6456 -1563.0 
-278.80872 -264.6456 -1563.0 
-270.00424 -264.6456 -1563.0 
-260.02994 -263.46036 -1556.0 
-250.13452 -262.27512 -1549.0 
