ply
format ascii 1.0
comment this is my Proccessing file
element vertex 1588
property float x
property float y
property float z
end_header
-61.92993 -250.89691 -1434.0 
-54.077454 -251.94669 -1440.0 
-45.965855 -251.94669 -1440.0 
-38.011932 -252.99648 -1446.0 
-29.866537 -252.99648 -1446.0 
-21.811218 -254.04625 -1452.0 
-13.632025 -254.04625 -1452.0 
-5.5204277 -257.1956 -1470.0 
2.7601612 -257.1956 -1470.0 
11.0934305 -258.42032 -1477.0 
19.413452 -258.42032 -1477.0 
27.846134 -259.47012 -1483.0 
36.346413 -260.51987 -1489.0 
44.94433 -261.74463 -1496.0 
53.371487 -261.74463 -1496.0 
62.046387 -262.7944 -1502.0 
70.50723 -262.7944 -1502.0 
79.336105 -264.01913 -1509.0 
88.18564 -265.0689 -1515.0 
97.16671 -266.29367 -1522.0 
105.74023 -266.29367 -1522.0 
114.83948 -267.51837 -1529.0 
123.452415 -267.51837 -1529.0 
132.66998 -268.74313 -1536.0 
141.8745 -269.7929 -1542.0 
151.24414 -271.01764 -1549.0 
160.69266 -272.2424 -1556.0 
169.45769 -272.2424 -1556.0 
179.02449 -273.46716 -1563.0 
188.79044 -274.86685 -1571.0 
198.52061 -276.09158 -1578.0 
207.40956 -276.09158 -1578.0 
217.25803 -277.3163 -1585.0 
226.18642 -277.3163 -1585.0 
236.15329 -278.54108 -1592.0 
246.35286 -279.94077 -1600.0 
255.36575 -279.94077 -1600.0 
1869.343 -1514.6545 -8657.0 
1967.2964 -1553.4963 -8879.0 
2017.3121 -1553.4963 -8879.0 
2299.2776 -1477.5624 -8445.0 
2290.9912 -1442.3948 -8244.0 
2394.4197 -1477.5624 -8445.0 
2941.1375 -1442.3948 -8244.0 
2987.5762 -1442.3948 -8244.0 
3034.0154 -1442.3948 -8244.0 
3080.4548 -1442.3948 -8244.0 
3203.1316 -1477.5624 -8445.0 
3250.703 -1477.5624 -8445.0 
3144.3936 -1408.627 -8051.0 
3189.7454 -1408.627 -8051.0 
3235.0974 -1408.627 -8051.0 
3451.9663 -1442.3948 -8244.0 
3498.4055 -1442.3948 -8244.0 
3544.845 -1442.3948 -8244.0 
3507.2083 -1408.627 -8051.0 
3637.7227 -1442.3948 -8244.0 
3684.1614 -1442.3948 -8244.0 
3643.2637 -1408.627 -8051.0 
3688.6157 -1408.627 -8051.0 
2870.8372 -976.2934 -5580.0 
2902.2693 -976.2934 -5580.0 
2933.702 -976.2934 -5580.0 
2917.841 -960.7217 -5491.0 
2948.772 -960.7217 -5491.0 
2979.7034 -960.7217 -5491.0 
3010.6345 -960.7217 -5491.0 
3090.8645 -976.2934 -5580.0 
1743.0027 -545.00964 -3115.0 
1776.3749 -549.9086 -3143.0 
1810.6334 -554.98254 -3172.0 
1811.7844 -549.9086 -3143.0 
-2321.2466 -717.9125 -3975.0 
-2298.855 -717.9125 -3975.0 
-2276.4636 -717.9125 -3975.0 
-2280.1572 -726.2204 -4021.0 
-2283.8936 -734.7089 -4068.0 
-2288.2124 -743.55865 -4117.0 
-2265.021 -743.55865 -4117.0 
-2241.8296 -743.55865 -4117.0 
-2218.6384 -743.55865 -4117.0 
-2222.11 -752.58905 -4167.0 
-2198.6372 -752.58905 -4167.0 
-2201.7861 -761.8 -4218.0 
-2178.026 -761.8 -4218.0 
-2154.2656 -761.8 -4218.0 
-2130.5051 -761.8 -4218.0 
-2132.717 -771.1915 -4270.0 
-2134.837 -780.76373 -4323.0 
-2110.4854 -780.76373 -4323.0 
-2086.1335 -780.76373 -4323.0 
-2061.7817 -780.76373 -4323.0 
-2037.4302 -780.76373 -4323.0 
-2013.0782 -780.76373 -4323.0 
-2014.0284 -790.6971 -4378.0 
-2014.8134 -800.81104 -4434.0 
-2001.2037 -1007.78656 -5580.0 
-1969.7711 -1007.78656 -5580.0 
-1938.3387 -1007.78656 -5580.0 
-1938.3463 -1024.4023 -5672.0 
-1938.3256 -1041.56 -5767.0 
-1905.8397 -1041.56 -5767.0 
-1842.4938 -1024.4023 -5672.0 
-1840.8679 -1041.56 -5767.0 
-1808.3821 -1041.56 -5767.0 
-1775.896 -1041.56 -5767.0 
-1772.734 -1059.079 -5864.0 
-1739.7017 -1059.079 -5864.0 
-1736.3557 -1077.5009 -5966.0 
-1673.6372 -1059.079 -5864.0 
-1613.4664 -1041.56 -5767.0 
-1607.5725 -1059.079 -5864.0 
-1601.9281 -1077.5009 -5966.0 
-1589.5073 -1115.9701 -6179.0 
-2355.073 -1690.4807 -9360.0 
-2184.0327 -1603.6088 -8879.0 
-2134.0164 -1603.6088 -8879.0 
-2084.0005 -1603.6088 -8879.0 
-2033.9845 -1603.6088 -8879.0 
-1934.3636 -1563.514 -8657.0 
-1933.9525 -1603.6088 -8879.0 
-1883.9364 -1603.6088 -8879.0 
-1833.9204 -1603.6088 -8879.0 
-1783.9045 -1603.6088 -8879.0 
-1733.8883 -1603.6088 -8879.0 
-1683.8726 -1603.6088 -8879.0 
-1633.8563 -1603.6088 -8879.0 
-1544.2399 -1563.514 -8657.0 
-1495.4745 -1563.514 -8657.0 
-1411.2808 -1525.2253 -8445.0 
-1397.9436 -1563.514 -8657.0 
-1420.2446 -1645.8707 -9113.0 
-1333.7603 -1603.6088 -8879.0 
-1251.6472 -1563.514 -8657.0 
-1202.8816 -1563.514 -8657.0 
-1154.1162 -1563.514 -8657.0 
-1078.2817 -1525.2253 -8445.0 
-1056.5852 -1563.514 -8657.0 
-983.1395 -1525.2253 -8445.0 
-913.30054 -1488.9235 -8244.0 
-827.325 -1421.0151 -7868.0 
-143.90233 -261.1576 -1446.0 
-134.63033 -258.99033 -1434.0 
-124.964005 -255.7394 -1416.0 
-116.98755 -255.7394 -1416.0 
-108.54923 -254.65573 -1410.0 
-101.03469 -255.7394 -1416.0 
-93.05829 -255.7394 -1416.0 
-85.08188 -255.7394 -1416.0 
-77.432144 -256.82303 -1422.0 
-69.71486 -257.90668 -1428.0 
-61.67081 -257.90668 -1428.0 
-53.85213 -258.99033 -1434.0 
-45.965855 -260.07394 -1440.0 
-38.011932 -261.1576 -1446.0 
-29.866537 -261.1576 -1446.0 
-21.811218 -262.24124 -1452.0 
-13.632025 -262.24124 -1452.0 
-5.4978952 -264.40854 -1464.0 
2.7601612 -265.49216 -1470.0 
11.040855 -265.49216 -1470.0 
19.413452 -266.7564 -1477.0 
27.73347 -266.7564 -1477.0 
36.19995 -267.84006 -1483.0 
44.734028 -268.9237 -1489.0 
53.371487 -270.18796 -1496.0 
61.798534 -270.18796 -1496.0 
70.50723 -271.2716 -1502.0 
78.96808 -271.2716 -1502.0 
88.18564 -273.61948 -1515.0 
97.16671 -274.88373 -1522.0 
105.74023 -274.88373 -1522.0 
114.83948 -276.14798 -1529.0 
123.452415 -276.14798 -1529.0 
132.66998 -277.41223 -1536.0 
141.32245 -277.41223 -1536.0 
150.56067 -278.49588 -1542.0 
159.96974 -279.7601 -1549.0 
169.45769 -281.02435 -1556.0 
178.22272 -281.02435 -1556.0 
187.82906 -282.2886 -1563.0 
197.63997 -283.73346 -1571.0 
207.40956 -284.9977 -1578.0 
216.29852 -284.9977 -1578.0 
226.18642 -286.26196 -1585.0 
235.11491 -286.26196 -1585.0 
244.0433 -286.26196 -1585.0 
254.08893 -287.5262 -1592.0 
1820.5776 -1563.514 -8657.0 
1917.2804 -1603.6088 -8879.0 
1967.2964 -1603.6088 -8879.0 
2356.9978 -1563.514 -8657.0 
2467.4563 -1603.6088 -8879.0 
3060.4177 -1525.2253 -8445.0 
3034.0154 -1488.9235 -8244.0 
3080.4548 -1488.9235 -8244.0 
3126.8938 -1488.9235 -8244.0 
3173.3325 -1488.9235 -8244.0 
3144.3936 -1454.0663 -8051.0 
3266.2104 -1488.9235 -8244.0 
3567.809 -1603.6088 -8879.0 
3544.845 -1488.9235 -8244.0 
3591.284 -1488.9235 -8244.0 
3637.7227 -1488.9235 -8244.0 
3684.1614 -1488.9235 -8244.0 
3821.5576 -1525.2253 -8445.0 
3688.6157 -1454.0663 -8051.0 
2902.2693 -1007.78656 -5580.0 
2933.702 -1007.78656 -5580.0 
2917.841 -991.7126 -5491.0 
2948.772 -991.7126 -5491.0 
2979.7034 -991.7126 -5491.0 
3010.6345 -991.7126 -5491.0 
3090.8645 -1007.78656 -5580.0 
1774.897 -572.88513 -3172.0 
1792.7651 -572.88513 -3172.0 
1810.6334 -572.88513 -3172.0 
1828.5016 -572.88513 -3172.0 
-2321.2466 -740.34735 -3975.0 
-2298.855 -740.34735 -3975.0 
-2276.4636 -740.34735 -3975.0 
-2280.1572 -748.91486 -4021.0 
-2283.8936 -757.66864 -4068.0 
-2288.2124 -766.795 -4117.0 
-2265.021 -766.795 -4117.0 
-2241.8296 -766.795 -4117.0 
-2218.6384 -766.795 -4117.0 
-2222.11 -776.1075 -4167.0 
-2198.6372 -776.1075 -4167.0 
-2201.7861 -785.60626 -4218.0 
-2178.026 -785.60626 -4218.0 
-2154.2656 -785.60626 -4218.0 
-2130.5051 -785.60626 -4218.0 
-2132.717 -795.2914 -4270.0 
-2134.837 -805.1626 -4323.0 
-2110.4854 -805.1626 -4323.0 
-2112.6748 -815.40643 -4378.0 
-2061.7817 -805.1626 -4323.0 
-2063.3516 -815.40643 -4378.0 
-2038.69 -815.40643 -4378.0 
-2014.0284 -815.40643 -4378.0 
-1989.3668 -815.40643 -4378.0 
-1969.2849 -1022.7037 -5491.0 
-1969.7711 -1039.28 -5580.0 
-1938.3387 -1039.28 -5580.0 
-1938.3463 -1056.4152 -5672.0 
-1938.3256 -1074.109 -5767.0 
-1874.4448 -1056.4152 -5672.0 
-1842.4938 -1056.4152 -5672.0 
-1810.5432 -1056.4152 -5672.0 
-1808.3821 -1074.109 -5767.0 
-1775.896 -1074.109 -5767.0 
-1772.734 -1092.1753 -5864.0 
-1739.7017 -1092.1753 -5864.0 
-1706.6694 -1092.1753 -5864.0 
-1673.6372 -1092.1753 -5864.0 
-1640.6049 -1092.1753 -5864.0 
-1607.5725 -1092.1753 -5864.0 
-1630.1216 -1130.7292 -6071.0 
-1595.9233 -1130.7292 -6071.0 
-1589.5073 -1150.8444 -6179.0 
-1583.1324 -1171.8907 -6292.0 
-2134.0164 -1653.7217 -8879.0 
-2031.8947 -1612.374 -8657.0 
-2033.9845 -1653.7217 -8879.0 
-1983.9684 -1653.7217 -8879.0 
-1833.9204 -1653.7217 -8879.0 
-1783.9045 -1653.7217 -8879.0 
-1733.8883 -1653.7217 -8879.0 
-1683.8726 -1653.7217 -8879.0 
-1633.8563 -1653.7217 -8879.0 
-1583.8403 -1653.7217 -8879.0 
-1495.4745 -1612.374 -8657.0 
-1446.7089 -1612.374 -8657.0 
-1433.7925 -1653.7217 -8879.0 
-1420.2446 -1697.3046 -9113.0 
-1368.9106 -1697.3046 -9113.0 
-1283.7444 -1653.7217 -8879.0 
-1202.8816 -1612.374 -8657.0 
-1154.1162 -1612.374 -8657.0 
-1105.3506 -1612.374 -8657.0 
-1030.7107 -1572.8889 -8445.0 
-1007.8198 -1612.374 -8657.0 
-935.56805 -1572.8889 -8445.0 
-887.99695 -1572.8889 -8445.0 
-143.30524 -268.20132 -1440.0 
-134.63033 -267.0838 -1434.0 
-125.49351 -264.8488 -1422.0 
-116.98755 -263.7313 -1416.0 
-108.08732 -261.49628 -1404.0 
-100.606575 -262.6138 -1410.0 
-93.05829 -263.7313 -1416.0 
-85.08188 -263.7313 -1416.0 
-77.432144 -264.8488 -1422.0 
-69.421936 -264.8488 -1422.0 
-61.67081 -265.9663 -1428.0 
-53.85213 -267.0838 -1434.0 
-45.77433 -267.0838 -1434.0 
-37.85421 -268.20132 -1440.0 
-29.866537 -269.31882 -1446.0 
-21.72109 -269.31882 -1446.0 
-13.575694 -269.31882 -1446.0 
-5.475363 -271.55383 -1458.0 
2.7601612 -273.78885 -1470.0 
11.040855 -273.78885 -1470.0 
19.413452 -275.09256 -1477.0 
27.73347 -275.09256 -1477.0 
36.053493 -275.09256 -1477.0 
44.734028 -277.32758 -1489.0 
53.371487 -278.63135 -1496.0 
61.798534 -278.63135 -1496.0 
70.50723 -279.74884 -1502.0 
78.96808 -279.74884 -1502.0 
87.83638 -281.0526 -1509.0 
97.16671 -283.47388 -1522.0 
106.22655 -284.77762 -1529.0 
114.83948 -284.77762 -1529.0 
123.452415 -284.77762 -1529.0 
132.66998 -286.0814 -1536.0 
141.32245 -286.0814 -1536.0 
150.56067 -287.19888 -1542.0 
159.96974 -288.50266 -1549.0 
168.69536 -288.50266 -1549.0 
178.22272 -289.8064 -1556.0 
186.98785 -289.8064 -1556.0 
197.63997 -292.60016 -1571.0 
207.40956 -293.90393 -1578.0 
216.29852 -293.90393 -1578.0 
225.18748 -293.90393 -1578.0 
235.11491 -295.2077 -1585.0 
244.0433 -295.2077 -1585.0 
254.08893 -296.5114 -1592.0 
1775.9939 -1572.8889 -8445.0 
1869.343 -1612.374 -8657.0 
1967.2964 -1653.7217 -8879.0 
2467.4563 -1653.7217 -8879.0 
3155.5605 -1572.8889 -8445.0 
3203.1316 -1572.8889 -8445.0 
3250.703 -1572.8889 -8445.0 
3298.274 -1572.8889 -8445.0 
3345.845 -1572.8889 -8445.0 
3478.6038 -1612.374 -8657.0 
3338.8467 -1465.4221 -7868.0 
3631.2732 -1572.8889 -8445.0 
3591.284 -1535.4524 -8244.0 
3637.7227 -1535.4524 -8244.0 
3773.9866 -1572.8889 -8445.0 
3730.6006 -1535.4524 -8244.0 
2918.17 -1056.4152 -5672.0 
2902.2693 -1039.28 -5580.0 
2933.702 -1039.28 -5580.0 
2965.1343 -1039.28 -5580.0 
2996.5667 -1039.28 -5580.0 
2979.7034 -1022.7037 -5491.0 
3010.6345 -1022.7037 -5491.0 
3041.5657 -1022.7037 -5491.0 
3122.2969 -1039.28 -5580.0 
1792.7651 -590.78784 -3172.0 
1794.0797 -585.3866 -3143.0 
1811.7844 -585.3866 -3143.0 
-2321.2466 -762.7819 -3975.0 
-2298.855 -762.7819 -3975.0 
-2276.4636 -762.7819 -3975.0 
-2280.1572 -771.60913 -4021.0 
-2257.5063 -771.60913 -4021.0 
-2288.2124 -790.03107 -4117.0 
-2265.021 -790.03107 -4117.0 
-2241.8296 -790.03107 -4117.0 
-2218.6384 -790.03107 -4117.0 
-2222.11 -799.6258 -4167.0 
-2198.6372 -799.6258 -4167.0 
-2201.7861 -809.4124 -4218.0 
-2178.026 -809.4124 -4218.0 
-2154.2656 -809.4124 -4218.0 
-2156.7703 -819.3909 -4270.0 
-2132.717 -819.3909 -4270.0 
-2134.837 -829.5614 -4323.0 
-2110.4854 -829.5614 -4323.0 
-2112.6748 -840.1156 -4378.0 
-2088.013 -840.1156 -4378.0 
-2063.3516 -840.1156 -4378.0 
-2038.69 -840.1156 -4378.0 
-2014.0284 -840.1156 -4378.0 
-2014.8134 -850.8617 -4434.0 
-1969.2849 -1053.6946 -5491.0 
-1938.3536 -1053.6946 -5491.0 
-1938.3387 -1070.7732 -5580.0 
-1906.9064 -1070.7732 -5580.0 
-1906.3954 -1088.4275 -5672.0 
-1874.4448 -1088.4275 -5672.0 
-1842.4938 -1088.4275 -5672.0 
-1810.5432 -1088.4275 -5672.0 
-1808.3821 -1106.6575 -5767.0 
-1775.896 -1106.6575 -5767.0 
-1743.4103 -1106.6575 -5767.0 
-1739.7017 -1125.2714 -5864.0 
-1706.6694 -1125.2714 -5864.0 
-1673.6372 -1125.2714 -5864.0 
-1640.6049 -1125.2714 -5864.0 
-1635.535 -1144.8446 -5966.0 
-1601.9281 -1144.8446 -5966.0 
-1624.314 -1185.7181 -6179.0 
-1589.5073 -1185.7181 -6179.0 
-1554.7004 -1185.7181 -6179.0 
-1519.8939 -1185.7181 -6179.0 
-2033.9845 -1703.8342 -8879.0 
-1783.9045 -1703.8342 -8879.0 
-1733.8883 -1703.8342 -8879.0 
-1683.8726 -1703.8342 -8879.0 
-1593.0052 -1661.2336 -8657.0 
-1583.8403 -1703.8342 -8879.0 
-1495.4745 -1661.2336 -8657.0 
-1446.7089 -1661.2336 -8657.0 
-1433.7925 -1703.8342 -8879.0 
-1383.7762 -1703.8342 -8879.0 
-1300.4126 -1661.2336 -8657.0 
-1251.6472 -1661.2336 -8657.0 
-1202.8816 -1661.2336 -8657.0 
-1154.1162 -1661.2336 -8657.0 
-1078.2817 -1620.5519 -8445.0 
-1030.7107 -1620.5519 -8445.0 
-983.1395 -1620.5519 -8445.0 
-913.30054 -1581.9811 -8244.0 
-846.56757 -1544.9453 -8051.0 
-801.2156 -1544.9453 -8051.0 
-134.63033 -275.17722 -1434.0 
-125.49351 -272.87445 -1422.0 
-116.98755 -271.72308 -1416.0 
-108.08732 -269.42035 -1404.0 
-100.17846 -269.42035 -1404.0 
-92.66397 -270.57172 -1410.0 
-85.08188 -271.72308 -1416.0 
-77.10542 -271.72308 -1416.0 
-69.421936 -272.87445 -1422.0 
-61.67081 -274.02582 -1428.0 
-53.62681 -274.02582 -1428.0 
-45.77433 -275.17722 -1434.0 
-37.696484 -275.17722 -1434.0 
-29.742609 -276.32858 -1440.0 
-21.72109 -277.47992 -1446.0 
-13.575694 -277.47992 -1446.0 
-5.475363 -279.78265 -1458.0 
2.7488952 -280.93405 -1464.0 
11.040855 -282.08542 -1470.0 
19.413452 -283.42868 -1477.0 
27.73347 -283.42868 -1477.0 
36.053493 -283.42868 -1477.0 
44.734028 -285.7314 -1489.0 
53.371487 -287.07468 -1496.0 
62.046387 -288.22604 -1502.0 
64.87417 -265.19867 -1382.0 
97.16671 -292.06393 -1522.0 
106.22655 -293.40723 -1529.0 
140.6784 -293.40723 -1529.0 
150.56067 -295.90182 -1542.0 
159.96974 -297.24512 -1549.0 
168.69536 -297.24512 -1549.0 
177.42094 -297.24512 -1549.0 
186.98785 -298.58838 -1556.0 
196.63353 -299.9316 -1563.0 
206.4895 -301.4668 -1571.0 
216.29852 -302.81003 -1578.0 
225.18748 -302.81003 -1578.0 
235.11491 -304.15332 -1585.0 
244.0433 -304.15332 -1585.0 
254.08893 -305.49658 -1592.0 
264.37863 -307.03174 -1600.0 
1917.2804 -1703.8342 -8879.0 
1967.2964 -1703.8342 -8879.0 
2017.3121 -1703.8342 -8879.0 
3317.729 -1703.8342 -8879.0 
3367.745 -1703.8342 -8879.0 
3332.3071 -1661.2336 -8657.0 
3381.0725 -1661.2336 -8657.0 
3345.845 -1620.5519 -8445.0 
3478.6038 -1661.2336 -8657.0 
3583.7012 -1620.5519 -8445.0 
3631.2732 -1620.5519 -8445.0 
3678.844 -1620.5519 -8445.0 
3637.7227 -1581.9811 -8244.0 
3684.1614 -1581.9811 -8244.0 
2855.9788 -1053.6946 -5491.0 
2886.91 -1053.6946 -5491.0 
2965.1343 -1070.7732 -5580.0 
2996.5667 -1070.7732 -5580.0 
2979.7034 -1053.6946 -5491.0 
3010.6345 -1053.6946 -5491.0 
2994.4827 -1037.3835 -5406.0 
3072.4968 -1053.6946 -5491.0 
1809.1555 -614.2554 -3201.0 
1794.0797 -603.1255 -3143.0 
1811.7844 -603.1255 -3143.0 
-2321.2466 -785.21686 -3975.0 
-2325.458 -794.3036 -4021.0 
-2302.8076 -794.3036 -4021.0 
-2280.1572 -794.3036 -4021.0 
-2283.8936 -803.58795 -4068.0 
-2288.2124 -813.26733 -4117.0 
-2265.021 -813.26733 -4117.0 
-2241.8296 -813.26733 -4117.0 
-2218.6384 -813.26733 -4117.0 
-2222.11 -823.1443 -4167.0 
-2225.5464 -833.21875 -4218.0 
-2201.7861 -833.21875 -4218.0 
-2178.026 -833.21875 -4218.0 
-2180.8235 -843.4908 -4270.0 
-2183.5405 -853.9603 -4323.0 
-2159.189 -853.9603 -4323.0 
-2134.837 -853.9603 -4323.0 
-2110.4854 -853.9603 -4323.0 
-2112.6748 -864.82495 -4378.0 
-2088.013 -864.82495 -4378.0 
-2063.3516 -864.82495 -4378.0 
-2038.69 -864.82495 -4378.0 
-2014.0284 -864.82495 -4378.0 
-2014.8134 -875.88715 -4434.0 
-1969.7711 -1102.2666 -5580.0 
-1970.297 -1120.4402 -5672.0 
-1906.9064 -1102.2666 -5580.0 
-1875.4736 -1102.2666 -5580.0 
-1844.0411 -1102.2666 -5580.0 
-1842.4938 -1120.4402 -5672.0 
-1810.5432 -1120.4402 -5672.0 
-1808.3821 -1139.2064 -5767.0 
-1775.896 -1139.2064 -5767.0 
-1743.4103 -1139.2064 -5767.0 
-1739.7017 -1158.3677 -5864.0 
-1706.6694 -1158.3677 -5864.0 
-1673.6372 -1158.3677 -5864.0 
-1669.1418 -1178.5166 -5966.0 
-1664.3201 -1199.2582 -6071.0 
-1630.1216 -1199.2582 -6071.0 
-1595.9233 -1199.2582 -6071.0 
-1589.5073 -1220.5924 -6179.0 
-1554.7004 -1220.5924 -6179.0 
-1519.8939 -1220.5924 -6179.0 
-1512.2458 -1242.9143 -6292.0 
-1504.0292 -1265.8287 -6408.0 
-1345.8602 -1220.5924 -6179.0 
-1288.1381 -1199.2582 -6071.0 
-1733.8883 -1753.9473 -8879.0 
-1683.8726 -1753.9473 -8879.0 
-1593.0052 -1710.0936 -8657.0 
-1544.2399 -1710.0936 -8657.0 
-1495.4745 -1710.0936 -8657.0 
-1446.7089 -1710.0936 -8657.0 
-1433.7925 -1753.9473 -8879.0 
-1383.7762 -1753.9473 -8879.0 
-1300.4126 -1710.0936 -8657.0 
-1251.6472 -1710.0936 -8657.0 
-1173.4243 -1668.2153 -8445.0 
-1125.8533 -1668.2153 -8445.0 
-1078.2817 -1668.2153 -8445.0 
-1006.17865 -1628.5101 -8244.0 
-959.7397 -1628.5101 -8244.0 
-913.30054 -1628.5101 -8244.0 
-866.86163 -1628.5101 -8244.0 
-143.90233 -285.64114 -1446.0 
-135.19363 -284.4559 -1440.0 
-126.02302 -282.08545 -1428.0 
-116.98755 -279.71497 -1416.0 
-108.08732 -277.3445 -1404.0 
-100.606575 -278.52975 -1410.0 
-92.26965 -277.3445 -1404.0 
-84.72136 -278.52975 -1410.0 
-76.77871 -278.52975 -1410.0 
-69.12902 -279.71497 -1416.0 
-61.411686 -280.9002 -1422.0 
-53.62681 -282.08545 -1428.0 
-45.582806 -282.08545 -1428.0 
-29.742609 -284.4559 -1440.0 
-21.72109 -285.64114 -1446.0 
-13.575694 -285.64114 -1446.0 
-5.452831 -286.8264 -1452.0 
2.7488952 -289.19684 -1464.0 
11.040855 -290.38208 -1470.0 
19.413452 -291.76483 -1477.0 
27.73347 -291.76483 -1477.0 
36.053493 -291.76483 -1477.0 
44.734028 -294.1353 -1489.0 
49.09035 -271.81342 -1376.0 
56.841434 -271.81342 -1376.0 
64.87417 -272.99866 -1382.0 
72.65905 -272.99866 -1382.0 
149.29135 -302.03687 -1529.0 
159.24684 -304.60486 -1542.0 
167.933 -304.60486 -1542.0 
177.42094 -305.98764 -1549.0 
186.14667 -305.98764 -1549.0 
196.63353 -308.75317 -1563.0 
205.43799 -308.75317 -1563.0 
215.33902 -310.3335 -1571.0 
225.18748 -311.71628 -1578.0 
234.07655 -311.71628 -1578.0 
244.0433 -313.09903 -1585.0 
252.9717 -313.09903 -1585.0 
261.9001 -313.09903 -1585.0 
1917.2804 -1753.9473 -8879.0 
2019.1431 -1800.1713 -9113.0 
2070.477 -1800.1713 -9113.0 
2121.8118 -1800.1713 -9113.0 
3405.1655 -1800.1713 -9113.0 
3456.4995 -1800.1713 -9113.0 
3507.8335 -1800.1713 -9113.0 
3467.7766 -1753.9473 -8879.0 
3429.838 -1710.0936 -8657.0 
3567.809 -1753.9473 -8879.0 
3624.9 -1710.0936 -8657.0 
3673.6653 -1710.0936 -8657.0 
3817.8892 -1753.9473 -8879.0 
3867.905 -1753.9473 -8879.0 
2768.0786 -1051.3016 -5322.0 
2886.91 -1084.6857 -5491.0 
2965.1343 -1102.2666 -5580.0 
2996.5667 -1102.2666 -5580.0 
2933.5781 -1067.8949 -5406.0 
2964.0303 -1067.8949 -5406.0 
2947.9536 -1051.3016 -5322.0 
3024.935 -1067.8949 -5406.0 
1809.1555 -632.3218 -3201.0 
1810.6334 -626.59314 -3172.0 
1811.7844 -620.8645 -3143.0 
-2321.2466 -807.65173 -3975.0 
-2298.855 -807.65173 -3975.0 
-2276.4636 -807.65173 -3975.0 
-2280.1572 -816.9981 -4021.0 
-2257.5063 -816.9981 -4021.0 
-2260.9785 -826.54767 -4068.0 
-2238.063 -826.54767 -4068.0 
-2241.8296 -836.5036 -4117.0 
-2218.6384 -836.5036 -4117.0 
-2222.11 -846.6628 -4167.0 
-2198.6372 -846.6628 -4167.0 
-2201.7861 -857.0251 -4218.0 
-2151.6912 -846.6628 -4167.0 
-2154.2656 -857.0251 -4218.0 
-2156.7703 -867.59064 -4270.0 
-2132.717 -867.59064 -4270.0 
-2108.6638 -867.59064 -4270.0 
-2110.4854 -878.3593 -4323.0 
-2086.1335 -878.3593 -4323.0 
-2061.7817 -878.3593 -4323.0 
-2037.4302 -878.3593 -4323.0 
-2038.69 -889.53436 -4378.0 
-2014.0284 -889.53436 -4378.0 
-2014.8134 -900.9126 -4434.0 
-2034.1986 -1152.453 -5672.0 
-2002.2477 -1152.453 -5672.0 
-1970.297 -1152.453 -5672.0 
-1938.3463 -1152.453 -5672.0 
-1906.3954 -1152.453 -5672.0 
-1905.8397 -1171.7554 -5767.0 
-1812.6085 -1133.7601 -5580.0 
-1781.1761 -1133.7601 -5580.0 
-1808.3821 -1171.7554 -5767.0 
-1775.896 -1171.7554 -5767.0 
-1772.734 -1191.464 -5864.0 
-1739.7017 -1191.464 -5864.0 
-1706.6694 -1191.464 -5864.0 
-1673.6372 -1191.464 -5864.0 
-1640.6049 -1191.464 -5864.0 
-1635.535 -1212.1886 -5966.0 
-1630.1216 -1233.5228 -6071.0 
-1595.9233 -1233.5228 -6071.0 
-1561.725 -1233.5228 -6071.0 
-1554.7004 -1255.4666 -6179.0 
-1519.8939 -1255.4666 -6179.0 
-1540.1259 -1301.9955 -6408.0 
-1504.0292 -1301.9955 -6408.0 
-1441.3595 -1278.4263 -6292.0 
-1380.6667 -1255.4666 -6179.0 
-1345.8602 -1255.4666 -6179.0 
-1335.0295 -1278.4263 -6292.0 
-1299.5863 -1278.4263 -6292.0 
-1641.7709 -1758.9536 -8657.0 
-1593.0052 -1758.9536 -8657.0 
-1544.2399 -1758.9536 -8657.0 
-1495.4745 -1758.9536 -8657.0 
-1446.7089 -1758.9536 -8657.0 
-1397.9436 -1758.9536 -8657.0 
-1349.1779 -1758.9536 -8657.0 
-1300.4126 -1758.9536 -8657.0 
-1251.6472 -1758.9536 -8657.0 
-1173.4243 -1715.8789 -8445.0 
-1125.8533 -1715.8789 -8445.0 
-1078.2817 -1715.8789 -8445.0 
-982.623 -1635.8248 -8051.0 
-937.2713 -1635.8248 -8051.0 
-891.9193 -1635.8248 -8051.0 
-846.56757 -1635.8248 -8051.0 
-135.19363 -292.58325 -1440.0 
-126.55253 -291.36414 -1434.0 
-118.47468 -291.36414 -1434.0 
-109.934975 -290.14508 -1428.0 
-77.10542 -287.70688 -1416.0 
-69.12902 -287.70688 -1416.0 
-61.411686 -288.92596 -1422.0 
-53.62681 -290.14508 -1428.0 
-5.452831 -295.02145 -1452.0 
2.7263634 -295.02145 -1452.0 
10.950726 -296.24054 -1458.0 
18.085924 -279.57956 -1376.0 
25.837006 -279.57956 -1376.0 
33.58809 -279.57956 -1376.0 
41.33917 -279.57956 -1376.0 
49.09035 -279.57956 -1376.0 
56.841434 -279.57956 -1376.0 
64.87417 -280.79865 -1382.0 
72.65905 -280.79865 -1382.0 
80.793175 -282.01773 -1388.0 
186.14667 -314.73016 -1549.0 
195.7529 -316.15247 -1556.0 
204.51793 -316.15247 -1556.0 
213.28296 -316.15247 -1556.0 
223.04692 -317.57474 -1563.0 
234.07655 -320.6225 -1578.0 
242.96552 -320.6225 -1578.0 
252.9717 -322.04474 -1585.0 
263.05673 -323.46704 -1592.0 
1967.8091 -1851.605 -9113.0 
3405.1655 -1851.605 -9113.0 
3456.4995 -1851.605 -9113.0 
3417.7607 -1804.0603 -8879.0 
3717.8567 -1804.0603 -8879.0 
3817.8892 -1804.0603 -8879.0 
2726.469 -1065.0842 -5242.0 
2842.221 -1098.4062 -5406.0 
2917.841 -1115.6768 -5491.0 
2948.772 -1115.6768 -5491.0 
2979.7034 -1115.6768 -5491.0 
3010.6345 -1115.6768 -5491.0 
3041.5657 -1115.6768 -5491.0 
1807.9106 -656.4837 -3231.0 
1809.1555 -650.3882 -3201.0 
1810.6334 -644.49585 -3172.0 
1811.7844 -638.6036 -3143.0 
-2321.2466 -830.0863 -3975.0 
-2298.855 -830.0863 -3975.0 
-2302.8076 -839.6923 -4021.0 
-2280.1572 -839.6923 -4021.0 
-2257.5063 -839.6923 -4021.0 
-2260.9785 -849.5072 -4068.0 
-2238.063 -849.5072 -4068.0 
-2215.1477 -849.5072 -4068.0 
-2218.6384 -859.73975 -4117.0 
-2195.447 -859.73975 -4117.0 
-2198.6372 -870.1811 -4167.0 
-2175.164 -870.1811 -4167.0 
-2151.6912 -870.1811 -4167.0 
-2128.2183 -870.1811 -4167.0 
-2130.5051 -880.83124 -4218.0 
-2106.745 -880.83124 -4218.0 
-2082.9846 -880.83124 -4218.0 
-2084.6108 -891.6902 -4270.0 
-2086.1335 -902.75806 -4323.0 
-2061.7817 -902.75806 -4323.0 
-2037.4302 -902.75806 -4323.0 
-2013.0782 -902.75806 -4323.0 
-1988.7266 -902.75806 -4323.0 
-1964.3748 -902.75806 -4323.0 
-2001.2037 -1165.2532 -5580.0 
-2002.2477 -1184.4653 -5672.0 
-1970.297 -1184.4653 -5672.0 
-1876.4915 -1146.6677 -5491.0 
-1875.4736 -1165.2532 -5580.0 
-1844.0411 -1165.2532 -5580.0 
-1812.6085 -1165.2532 -5580.0 
-1840.8679 -1204.3038 -5767.0 
-1808.3821 -1204.3038 -5767.0 
-1805.7664 -1224.56 -5864.0 
-1743.4103 -1204.3038 -5767.0 
-1739.7017 -1224.56 -5864.0 
-1678.4384 -1204.3038 -5767.0 
-1673.6372 -1224.56 -5864.0 
-1640.6049 -1224.56 -5864.0 
-1607.5725 -1224.56 -5864.0 
-1601.9281 -1245.8604 -5966.0 
-1595.9233 -1267.7872 -6071.0 
-1561.725 -1267.7872 -6071.0 
-1554.7004 -1290.3405 -6179.0 
-1519.8939 -1290.3405 -6179.0 
-1512.2458 -1313.9379 -6292.0 
-1476.8027 -1313.9379 -6292.0 
-1441.3595 -1313.9379 -6292.0 
-1405.9161 -1313.9379 -6292.0 
-1370.4729 -1313.9379 -6292.0 
-1359.6423 -1338.1619 -6408.0 
-1323.5457 -1338.1619 -6408.0 
-1287.449 -1338.1619 -6408.0 
-1275.1764 -1363.6387 -6530.0 
-1262.0983 -1389.742 -6655.0 
-1248.716 -1417.0984 -6786.0 
-1372.2811 -1606.5042 -7693.0 
-1458.8522 -1763.5419 -8445.0 
-1411.2808 -1763.5419 -8445.0 
-1363.7095 -1763.5419 -8445.0 
-1316.1381 -1763.5419 -8445.0 
-1268.5669 -1763.5419 -8445.0 
-1220.9958 -1763.5419 -8445.0 
-1202.8816 -1807.8131 -8657.0 
-1154.1162 -1807.8131 -8657.0 
-891.9193 -1681.2642 -8051.0 
-846.56757 -1681.2642 -8051.0 
-801.2156 -1681.2642 -8051.0 
-118.97039 -300.7105 -1440.0 
-77.432144 -296.95163 -1422.0 
-69.421936 -296.95163 -1422.0 
-61.152565 -295.69867 -1416.0 
-52.95084 -294.4457 -1410.0 
-44.465584 -290.89566 -1393.0 
-36.1718 -287.3456 -1376.0 
-28.420717 -287.3456 -1376.0 
-5.1899533 -288.59857 -1382.0 
2.594927 -288.59857 -1382.0 
10.379907 -288.59857 -1382.0 
18.085924 -287.3456 -1376.0 
25.837006 -287.3456 -1376.0 
33.58809 -287.3456 -1376.0 
41.33917 -287.3456 -1376.0 
49.304405 -288.59857 -1382.0 
56.841434 -287.3456 -1376.0 
64.87417 -288.59857 -1382.0 
72.65905 -288.59857 -1382.0 
80.793175 -289.85153 -1388.0 
87.84586 -287.3456 -1376.0 
96.01379 -288.59857 -1382.0 
103.34802 -287.3456 -1376.0 
195.7529 -324.93442 -1556.0 
204.51793 -324.93442 -1556.0 
213.28296 -324.93442 -1556.0 
222.04799 -324.93442 -1556.0 
233.0382 -328.06683 -1571.0 
242.96552 -329.5286 -1578.0 
252.9717 -330.9904 -1585.0 
261.9001 -330.9904 -1585.0 
2886.91 -1146.6677 -5491.0 
2917.841 -1146.6677 -5491.0 
2903.1255 -1128.9174 -5406.0 
2887.9954 -1111.376 -5322.0 
2964.0303 -1128.9174 -5406.0 
3041.5657 -1146.6677 -5491.0 
3122.2969 -1165.2532 -5580.0 
1809.1555 -668.4544 -3201.0 
1810.6334 -662.39844 -3172.0 
1811.7844 -656.34247 -3143.0 
1829.4891 -656.34247 -3143.0 
-2294.9683 -842.87 -3930.0 
-2298.855 -852.5212 -3975.0 
-2276.4636 -852.5212 -3975.0 
-2280.1572 -862.38684 -4021.0 
-2257.5063 -862.38684 -4021.0 
-2234.856 -862.38684 -4021.0 
-2212.2053 -862.38684 -4021.0 
-2189.5547 -862.38684 -4021.0 
-2218.6384 -882.976 -4117.0 
-2222.11 -893.6995 -4167.0 
-2198.6372 -893.6995 -4167.0 
-2175.164 -893.6995 -4167.0 
-2151.6912 -893.6995 -4167.0 
-2128.2183 -893.6995 -4167.0 
-2104.745 -893.6995 -4167.0 
-2106.745 -904.6375 -4218.0 
-2082.9846 -904.6375 -4218.0 
-2110.4854 -927.157 -4323.0 
-2086.1335 -927.157 -4323.0 
-2061.7817 -927.157 -4323.0 
-2037.4302 -927.157 -4323.0 
-2013.0782 -927.157 -4323.0 
-2014.0284 -938.9529 -4378.0 
-1969.7711 -1196.7467 -5580.0 
-1938.3387 -1196.7467 -5580.0 
-1876.4915 -1177.6588 -5491.0 
-1875.4736 -1196.7467 -5580.0 
-1844.0411 -1196.7467 -5580.0 
-1842.4938 -1216.478 -5672.0 
-1840.8679 -1236.8528 -5767.0 
-1808.3821 -1236.8528 -5767.0 
-1805.7664 -1257.6564 -5864.0 
-1772.734 -1257.6564 -5864.0 
-1739.7017 -1257.6564 -5864.0 
-1678.4384 -1236.8528 -5767.0 
-1673.6372 -1257.6564 -5864.0 
-1640.6049 -1257.6564 -5864.0 
-1607.5725 -1257.6564 -5864.0 
-1574.54 -1257.6564 -5864.0 
-1568.3213 -1279.5323 -5966.0 
-1561.725 -1302.0518 -6071.0 
-1554.7004 -1325.2147 -6179.0 
-1493.3282 -1302.0518 -6071.0 
-1485.0869 -1325.2147 -6179.0 
-1476.8027 -1349.4498 -6292.0 
-1441.3595 -1349.4498 -6292.0 
-1405.9161 -1349.4498 -6292.0 
-1370.4729 -1349.4498 -6292.0 
-1359.6423 -1374.3284 -6408.0 
-1323.5457 -1374.3284 -6408.0 
-1264.1432 -1349.4498 -6292.0 
-1275.1764 -1400.4939 -6530.0 
-1262.0983 -1427.3027 -6655.0 
-1224.6101 -1427.3027 -6655.0 
-1234.7498 -1484.5664 -6922.0 
-1172.2642 -1455.3984 -6786.0 
-1316.1381 -1811.2053 -8445.0 
-1268.5669 -1811.2053 -8445.0 
-1251.6472 -1856.6731 -8657.0 
-846.56757 -1726.7039 -8051.0 
-801.2156 -1726.7039 -8051.0 
-773.9836 -1768.0967 -8244.0 
-77.10542 -303.69055 -1416.0 
-68.29909 -300.04456 -1399.0 
-60.159267 -298.75775 -1393.0 
-51.899334 -296.39856 -1382.0 
-44.114456 -296.39856 -1382.0 
-36.1718 -295.11172 -1376.0 
-28.544643 -296.39856 -1382.0 
10.379907 -296.39856 -1382.0 
18.164787 -296.39856 -1382.0 
25.837006 -295.11172 -1376.0 
33.58809 -295.11172 -1376.0 
41.33917 -295.11172 -1376.0 
49.304405 -296.39856 -1382.0 
56.841434 -295.11172 -1376.0 
64.592514 -295.11172 -1376.0 
72.65905 -296.39856 -1382.0 
80.793175 -297.6854 -1388.0 
88.22891 -296.39856 -1382.0 
96.01379 -296.39856 -1382.0 
103.79867 -296.39856 -1382.0 
111.58355 -296.39856 -1382.0 
204.51793 -333.71646 -1556.0 
213.28296 -333.71646 -1556.0 
223.04692 -335.21777 -1563.0 
233.0382 -336.93353 -1571.0 
242.96552 -338.4348 -1578.0 
252.9717 -339.93613 -1585.0 
261.9001 -339.93613 -1585.0 
2886.91 -1177.6588 -5491.0 
2872.673 -1159.4288 -5406.0 
2903.1255 -1159.4288 -5406.0 
2933.5781 -1159.4288 -5406.0 
2964.0303 -1159.4288 -5406.0 
2947.9536 -1141.4133 -5322.0 
3024.935 -1159.4288 -5406.0 
1792.7651 -680.30115 -3172.0 
1810.6334 -680.30115 -3172.0 
1811.7844 -674.0815 -3143.0 
-2294.9683 -865.0506 -3930.0 
-2298.855 -874.9558 -3975.0 
-2302.8076 -885.08105 -4021.0 
-2280.1572 -885.08105 -4021.0 
-2257.5063 -885.08105 -4021.0 
-2209.2893 -874.9558 -3975.0 
-2186.898 -874.9558 -3975.0 
-2241.8296 -906.2121 -4117.0 
-2218.6384 -906.2121 -4117.0 
-2195.447 -906.2121 -4117.0 
-2198.6372 -917.21783 -4167.0 
-2175.164 -917.21783 -4167.0 
-2151.6912 -917.21783 -4167.0 
-2154.2656 -928.4437 -4218.0 
-2104.745 -917.21783 -4167.0 
-2081.2722 -917.21783 -4167.0 
-2057.799 -917.21783 -4167.0 
-2084.6108 -939.88965 -4270.0 
-2086.1335 -951.5558 -4323.0 
-2036.5043 -939.88965 -4270.0 
-2012.4512 -939.88965 -4270.0 
-2013.0782 -951.5558 -4323.0 
-1969.2849 -1208.6497 -5491.0 
-1938.3536 -1208.6497 -5491.0 
-1938.3387 -1228.2399 -5580.0 
-1876.4915 -1208.6497 -5491.0 
-1875.4736 -1228.2399 -5580.0 
-1844.0411 -1228.2399 -5580.0 
-1842.4938 -1248.4904 -5672.0 
-1840.8679 -1269.4012 -5767.0 
-1838.7987 -1290.7524 -5864.0 
-1805.7664 -1290.7524 -5864.0 
-1772.734 -1290.7524 -5864.0 
-1710.9242 -1269.4012 -5767.0 
-1678.4384 -1269.4012 -5767.0 
-1645.9525 -1269.4012 -5767.0 
-1640.6049 -1290.7524 -5864.0 
-1607.5725 -1290.7524 -5864.0 
-1574.54 -1290.7524 -5864.0 
-1568.3213 -1313.2041 -5966.0 
-1561.725 -1336.3162 -6071.0 
-1527.5266 -1336.3162 -6071.0 
-1519.8939 -1360.0885 -6179.0 
-1485.0869 -1360.0885 -6179.0 
-1450.2803 -1360.0885 -6179.0 
-1441.3595 -1384.9614 -6292.0 
-1405.9161 -1384.9614 -6292.0 
-1370.4729 -1384.9614 -6292.0 
-1385.5281 -1437.3489 -6530.0 
-1323.5457 -1410.4948 -6408.0 
-1287.449 -1410.4948 -6408.0 
-1251.3522 -1410.4948 -6408.0 
-1262.0983 -1464.8632 -6655.0 
-1224.6101 -1464.8632 -6655.0 
-1187.1222 -1464.8632 -6655.0 
-1149.6342 -1464.8632 -6655.0 
-1284.8126 -1814.6254 -8244.0 
-1238.3737 -1814.6254 -8244.0 
-1220.9958 -1858.8683 -8445.0 
-181.56502 -313.00305 -1422.0 
-172.09023 -310.3617 -1410.0 
-164.14763 -310.3617 -1410.0 
-156.86967 -311.68237 -1416.0 
-846.56757 -1772.1432 -8051.0 
-801.2156 -1772.1432 -8051.0 
-755.86383 -1772.1432 -8051.0 
-85.08188 -311.68237 -1416.0 
-76.77871 -310.3617 -1410.0 
-67.46914 -304.19846 -1382.0 
-59.68421 -304.19846 -1382.0 
-51.67401 -302.87778 -1376.0 
-43.92293 -302.87778 -1376.0 
-36.1718 -302.87778 -1376.0 
-28.544643 -304.19846 -1382.0 
18.085924 -302.87778 -1376.0 
25.837006 -302.87778 -1376.0 
33.734547 -304.19846 -1382.0 
41.51943 -304.19846 -1382.0 
49.09035 -302.87778 -1376.0 
56.841434 -302.87778 -1376.0 
64.592514 -302.87778 -1376.0 
72.3436 -302.87778 -1376.0 
80.443924 -304.19846 -1382.0 
88.22891 -304.19846 -1382.0 
96.01379 -304.19846 -1382.0 
103.79867 -304.19846 -1382.0 
111.58355 -304.19846 -1382.0 
223.04692 -344.0392 -1563.0 
233.0382 -345.80014 -1571.0 
242.96552 -347.34094 -1578.0 
252.9717 -348.88174 -1585.0 
260.74344 -347.34094 -1578.0 
2872.673 -1189.94 -5406.0 
2903.1255 -1189.94 -5406.0 
2887.9954 -1171.4503 -5322.0 
2917.9744 -1171.4503 -5322.0 
2903.6401 -1153.8412 -5242.0 
2933.1685 -1153.8412 -5242.0 
1776.3749 -691.82043 -3143.0 
1794.0797 -691.82043 -3143.0 
1811.7844 -691.82043 -3143.0 
1813.1907 -685.6572 -3115.0 
-2294.9683 -887.2315 -3930.0 
-2272.8303 -887.2315 -3930.0 
-2276.4636 -897.3907 -3975.0 
-2280.1572 -907.7756 -4021.0 
-2283.8936 -918.3862 -4068.0 
-2260.9785 -918.3862 -4068.0 
-2162.1406 -887.2315 -3930.0 
-2241.8296 -929.44836 -4117.0 
-2218.6384 -929.44836 -4117.0 
-2195.447 -929.44836 -4117.0 
-2198.6372 -940.7363 -4167.0 
-2175.164 -940.7363 -4167.0 
-2151.6912 -940.7363 -4167.0 
-2128.2183 -940.7363 -4167.0 
-2104.745 -940.7363 -4167.0 
-2081.2722 -940.7363 -4167.0 
-2082.9846 -952.25 -4218.0 
-2084.6108 -963.98944 -4270.0 
-2060.5576 -963.98944 -4270.0 
-2036.5043 -963.98944 -4270.0 
-1987.9436 -952.25 -4218.0 
-2013.0782 -975.95465 -4323.0 
-1938.8007 -1220.4513 -5406.0 
-1938.3536 -1239.6407 -5491.0 
-1907.4226 -1239.6407 -5491.0 
-1876.4915 -1239.6407 -5491.0 
-1906.3954 -1280.503 -5672.0 
-1905.8397 -1301.9502 -5767.0 
-1873.3536 -1301.9502 -5767.0 
-1840.8679 -1301.9502 -5767.0 
-1808.3821 -1301.9502 -5767.0 
-1775.896 -1301.9502 -5767.0 
-1743.4103 -1301.9502 -5767.0 
-1710.9242 -1301.9502 -5767.0 
-1678.4384 -1301.9502 -5767.0 
-1645.9525 -1301.9502 -5767.0 
-1640.6049 -1323.8488 -5864.0 
-1635.535 -1346.8761 -5966.0 
-1601.9281 -1346.8761 -5966.0 
-1568.3213 -1346.8761 -5966.0 
-1534.7145 -1346.8761 -5966.0 
-1501.1074 -1346.8761 -5966.0 
-1493.3282 -1370.5808 -6071.0 
-1485.0869 -1394.9628 -6179.0 
-1450.2803 -1394.9628 -6179.0 
-1415.4736 -1394.9628 -6179.0 
-1431.8357 -1446.6615 -6408.0 
-1395.7391 -1446.6615 -6408.0 
-1335.0295 -1420.4735 -6292.0 
-1323.5457 -1446.6615 -6408.0 
-1287.449 -1446.6615 -6408.0 
-1275.1764 -1474.204 -6530.0 
-1262.0983 -1502.4238 -6655.0 
-1224.6101 -1502.4238 -6655.0 
-1187.1222 -1502.4238 -6655.0 
-1149.6342 -1502.4238 -6655.0 
-1134.038 -1531.9983 -6786.0 
-1284.8126 -1861.1544 -8244.0 
-1238.3737 -1861.1544 -8244.0 
-1220.9958 -1906.5319 -8445.0 
-1118.6785 -1817.5829 -8051.0 
-172.09023 -318.3197 -1410.0 
-164.84613 -319.67426 -1416.0 
-156.86967 -319.67426 -1416.0 
-148.89326 -319.67426 -1416.0 
-801.2156 -1817.5829 -8051.0 
-755.86383 -1817.5829 -8051.0 
-710.51215 -1817.5829 -8051.0 
-93.4526 -321.0288 -1422.0 
-85.44239 -321.0288 -1422.0 
-76.77871 -318.3197 -1410.0 
-67.46914 -311.99847 -1382.0 
-59.943336 -313.35303 -1388.0 
-51.899334 -311.99847 -1382.0 
-43.92293 -310.64392 -1376.0 
-36.1718 -310.64392 -1376.0 
-28.420717 -310.64392 -1376.0 
-12.871561 -309.5151 -1371.0 
25.837006 -310.64392 -1376.0 
33.734547 -311.99847 -1382.0 
41.33917 -310.64392 -1376.0 
49.09035 -310.64392 -1376.0 
56.841434 -310.64392 -1376.0 
64.3578 -309.5151 -1371.0 
72.3436 -310.64392 -1376.0 
80.09467 -310.64392 -1376.0 
87.52665 -309.5151 -1371.0 
94.9022 -308.38632 -1366.0 
102.97249 -309.5151 -1371.0 
109.80726 -307.03177 -1360.0 
117.98645 -308.38632 -1366.0 
142.72318 -311.99847 -1382.0 
151.16148 -313.35303 -1388.0 
159.55286 -314.4818 -1393.0 
167.3998 -314.4818 -1393.0 
233.0382 -354.66684 -1571.0 
242.96552 -356.24716 -1578.0 
252.9717 -357.82748 -1585.0 
2872.673 -1220.4513 -5406.0 
2903.1255 -1220.4513 -5406.0 
2933.5781 -1220.4513 -5406.0 
2917.9744 -1201.4875 -5322.0 
2947.9536 -1201.4875 -5322.0 
2977.9326 -1201.4875 -5322.0 
2962.697 -1183.4269 -5242.0 
1778.0969 -703.2382 -3115.0 
1795.6437 -703.2382 -3115.0 
1813.1907 -703.2382 -3115.0 
-2321.2466 -919.82556 -3975.0 
-2272.8303 -909.4124 -3930.0 
-2276.4636 -919.82556 -3975.0 
-2254.0723 -919.82556 -3975.0 
-2311.4036 -952.6847 -4117.0 
-2288.2124 -952.6847 -4117.0 
-2212.2053 -930.47003 -4021.0 
-2241.8296 -952.6847 -4117.0 
-2218.6384 -952.6847 -4117.0 
-2195.447 -952.6847 -4117.0 
-2172.2556 -952.6847 -4117.0 
-2175.164 -964.2548 -4167.0 
-2125.873 -952.6847 -4117.0 
-2128.2183 -964.2548 -4167.0 
-2130.5051 -976.05634 -4218.0 
-2106.745 -976.05634 -4218.0 
-2082.9846 -976.05634 -4218.0 
-2059.2244 -976.05634 -4218.0 
-2060.5576 -988.0893 -4270.0 
-2036.5043 -988.0893 -4270.0 
-1987.9436 -976.05634 -4218.0 
-2013.0782 -1000.3536 -4323.0 
-1969.2849 -1270.6318 -5491.0 
-1938.3536 -1270.6318 -5491.0 
-1907.4226 -1270.6318 -5491.0 
-1876.4915 -1270.6318 -5491.0 
-1875.4736 -1291.2268 -5580.0 
-1905.8397 -1334.4991 -5767.0 
-1842.4938 -1312.5159 -5672.0 
-1840.8679 -1334.4991 -5767.0 
-1808.3821 -1334.4991 -5767.0 
-1775.896 -1334.4991 -5767.0 
-1743.4103 -1334.4991 -5767.0 
-1710.9242 -1334.4991 -5767.0 
-1678.4384 -1334.4991 -5767.0 
-1673.6372 -1356.9451 -5864.0 
-1640.6049 -1356.9451 -5864.0 
-1664.3201 -1404.8455 -6071.0 
-1601.9281 -1380.5481 -5966.0 
-1595.9233 -1404.8455 -6071.0 
-1534.7145 -1380.5481 -5966.0 
-1501.1074 -1380.5481 -5966.0 
-1467.5006 -1380.5481 -5966.0 
-1459.1298 -1404.8455 -6071.0 
-1424.9315 -1404.8455 -6071.0 
-1415.4736 -1429.8369 -6179.0 
-1405.9161 -1455.9855 -6292.0 
-1370.4729 -1455.9855 -6292.0 
-1335.0295 -1455.9855 -6292.0 
-1299.5863 -1455.9855 -6292.0 
-1287.449 -1482.8281 -6408.0 
-1275.1764 -1511.0592 -6530.0 
-1262.0983 -1539.9846 -6655.0 
-1248.716 -1570.2983 -6786.0 
-1187.1222 -1539.9846 -6655.0 
-1172.2642 -1570.2983 -6786.0 
-1134.038 -1570.2983 -6786.0 
-1270.5348 -1820.676 -7868.0 
-1254.7339 -1863.0226 -8051.0 
-1238.3737 -1907.6833 -8244.0 
-1220.9958 -1954.1954 -8445.0 
-1145.4956 -1907.6833 -8244.0 
-1125.8533 -1954.1954 -8445.0 
-164.84613 -327.66614 -1416.0 
-156.86967 -327.66614 -1416.0 
-148.89326 -327.66614 -1416.0 
-140.91681 -327.66614 -1416.0 
-722.25323 -1780.1805 -7693.0 
-710.51215 -1863.0226 -8051.0 
-101.46281 -329.05457 -1422.0 
-93.4526 -329.05457 -1422.0 
-85.44239 -329.05457 -1422.0 
-67.76206 -321.18686 -1388.0 
-59.943336 -321.18686 -1388.0 
-51.899334 -319.79846 -1382.0 
-43.92293 -318.41003 -1376.0 
-36.1718 -318.41003 -1376.0 
-28.317442 -317.25302 -1371.0 
-20.594477 -317.25302 -1371.0 
-12.871561 -317.25302 -1371.0 
18.020205 -317.25302 -1371.0 
25.743122 -317.25302 -1371.0 
33.58809 -318.41003 -1376.0 
41.188953 -317.25302 -1371.0 
48.91197 -317.25302 -1371.0 
56.634884 -317.25302 -1371.0 
64.3578 -317.25302 -1371.0 
72.08072 -317.25302 -1371.0 
79.80364 -317.25302 -1371.0 
87.20744 -316.096 -1366.0 
94.485344 -314.70758 -1360.0 
102.1463 -314.70758 -1360.0 
109.40355 -313.55057 -1355.0 
117.98645 -316.096 -1366.0 
126.14133 -317.25302 -1371.0 
133.86426 -317.25302 -1371.0 
142.10353 -318.41003 -1376.0 
150.50806 -319.79846 -1382.0 
158.98016 -321.18686 -1388.0 
168.12085 -323.7323 -1399.0 
240.65596 -361.68234 -1563.0 
2886.91 -1270.6318 -5491.0 
2917.841 -1270.6318 -5491.0 
2903.1255 -1250.9626 -5406.0 
2933.5781 -1250.9626 -5406.0 
2917.9744 -1231.5248 -5322.0 
2903.6401 -1213.0126 -5242.0 
2977.9326 -1231.5248 -5322.0 
2962.697 -1213.0126 -5242.0 
1778.0969 -720.8192 -3115.0 
1795.6437 -720.8192 -3115.0 
1813.1907 -720.8192 -3115.0 
-2294.9683 -931.5931 -3930.0 
-2272.8303 -931.5931 -3930.0 
-2250.6924 -931.5931 -3930.0 
-2254.0723 -942.2602 -3975.0 
-2257.5063 -953.1643 -4021.0 
-2260.9785 -964.3055 -4068.0 
-2238.063 -964.3055 -4068.0 
-2241.8296 -975.9207 -4117.0 
-2192.2324 -964.3055 -4068.0 
-2169.317 -964.3055 -4068.0 
-2172.2556 -975.9207 -4117.0 
-2149.0642 -975.9207 -4117.0 
-2151.6912 -987.7731 -4167.0 
-2128.2183 -987.7731 -4167.0 
-2130.5051 -999.8625 -4218.0 
-2081.2722 -987.7731 -4167.0 
-2082.9846 -999.8625 -4218.0 
-2059.2244 -999.8625 -4218.0 
-2060.5576 -1012.18896 -4270.0 
-2061.7817 -1024.7524 -4323.0 
-2037.4302 -1024.7524 -4323.0 
-2000.2161 -1301.6228 -5491.0 
-1969.2849 -1301.6228 -5491.0 
-1938.3536 -1301.6228 -5491.0 
-1877.8959 -1281.4739 -5406.0 
-1876.4915 -1301.6228 -5491.0 
-1875.4736 -1322.7198 -5580.0 
-1874.4448 -1344.5282 -5672.0 
-1842.4938 -1344.5282 -5672.0 
-1810.5432 -1344.5282 -5672.0 
-1778.5925 -1344.5282 -5672.0 
-1775.896 -1367.0476 -5767.0 
-1772.734 -1390.0411 -5864.0 
-1739.7017 -1390.0411 -5864.0 
-1706.6694 -1390.0411 -5864.0 
-1673.6372 -1390.0411 -5864.0 
-1640.6049 -1390.0411 -5864.0 
-1607.5725 -1390.0411 -5864.0 
-1601.9281 -1414.22 -5966.0 
-1568.3213 -1414.22 -5966.0 
-1534.7145 -1414.22 -5966.0 
-1501.1074 -1414.22 -5966.0 
-1493.3282 -1439.1097 -6071.0 
-1459.1298 -1439.1097 -6071.0 
-1450.2803 -1464.7108 -6179.0 
-1441.3595 -1491.4971 -6292.0 
-1405.9161 -1491.4971 -6292.0 
-1370.4729 -1491.4971 -6292.0 
-1335.0295 -1491.4971 -6292.0 
-1299.5863 -1491.4971 -6292.0 
-1287.449 -1518.9945 -6408.0 
-1275.1764 -1547.9141 -6530.0 
-1262.0983 -1577.5449 -6655.0 
-1248.716 -1608.5981 -6786.0 
-1210.49 -1608.5981 -6786.0 
-1172.2642 -1608.5981 -6786.0 
-1134.038 -1608.5981 -6786.0 
-1242.2756 -1823.5992 -7693.0 
-1284.8126 -1954.2119 -8244.0 
-1238.3737 -1954.2119 -8244.0 
-1220.9958 -2001.8584 -8445.0 
-1145.4956 -1954.2119 -8244.0 
-1099.0566 -1954.2119 -8244.0 
-1052.6176 -1954.2119 -8244.0 
-1030.7107 -2001.8584 -8445.0 
-959.7397 -1954.2119 -8244.0 
-157.53438 -337.08023 -1422.0 
-149.52417 -337.08023 -1422.0 
-141.51392 -337.08023 -1422.0 
-132.9404 -335.65796 -1416.0 
-124.964005 -335.65796 -1416.0 
-116.98755 -335.65796 -1416.0 
-109.47306 -337.08023 -1422.0 
-101.03469 -335.65796 -1416.0 
-92.66397 -334.23566 -1410.0 
-84.360855 -332.81342 -1404.0 
-51.899334 -327.5984 -1382.0 
-43.763325 -324.99084 -1371.0 
-36.1718 -326.1761 -1376.0 
-28.420717 -326.1761 -1376.0 
-20.669584 -326.1761 -1376.0 
-12.871561 -324.99084 -1371.0 
-5.167421 -326.1761 -1376.0 
2.594927 -327.5984 -1382.0 
10.334842 -326.1761 -1376.0 
18.020205 -324.99084 -1371.0 
25.743122 -324.99084 -1371.0 
33.343987 -323.80563 -1366.0 
41.03874 -323.80563 -1366.0 
48.73359 -323.80563 -1366.0 
56.428337 -323.80563 -1366.0 
64.12309 -323.80563 -1366.0 
71.81785 -323.80563 -1366.0 
79.512596 -323.80563 -1366.0 
87.20744 -323.80563 -1366.0 
94.485344 -322.38333 -1360.0 
101.77077 -321.1981 -1355.0 
109.80726 -322.38333 -1360.0 
118.41832 -324.99084 -1371.0 
126.14133 -324.99084 -1371.0 
133.86426 -324.99084 -1371.0 
140.45117 -322.38333 -1360.0 
160.81277 -332.81342 -1404.0 
168.72171 -332.81342 -1404.0 
2828.0366 -1261.5619 -5322.0 
2858.0156 -1261.5619 -5322.0 
2887.9954 -1261.5619 -5322.0 
2917.9744 -1261.5619 -5322.0 
2903.6401 -1242.5981 -5242.0 
3024.935 -1281.4739 -5406.0 
2962.697 -1242.5981 -5242.0 
1762.1139 -731.7628 -3087.0 
1795.6437 -738.4001 -3115.0 
1813.1907 -738.4001 -3115.0 
-2321.2466 -964.69495 -3975.0 
-2272.8303 -953.77386 -3930.0 
-2250.6924 -953.77386 -3930.0 
-2254.0723 -964.69495 -3975.0 
-2231.6807 -964.69495 -3975.0 
-2234.856 -975.85876 -4021.0 
-2238.063 -987.2652 -4068.0 
-2241.8296 -999.1571 -4117.0 
-2218.6384 -999.1571 -4117.0 
-2195.447 -999.1571 -4117.0 
-2172.2556 -999.1571 -4117.0 
-2149.0642 -999.1571 -4117.0 
-2151.6912 -1011.2916 -4167.0 
-2128.2183 -1011.2916 -4167.0 
-2130.5051 -1023.66876 -4218.0 
-2132.717 -1036.2887 -4270.0 
-2082.9846 -1023.66876 -4218.0 
-2059.2244 -1023.66876 -4218.0 
-2060.5576 -1036.2887 -4270.0 
-2061.7817 -1049.1512 -4323.0 
-2037.4302 -1049.1512 -4323.0 
-1988.398 -1036.2887 -4270.0 
-2031.1473 -1332.6139 -5491.0 
-2000.2161 -1332.6139 -5491.0 
-1938.8007 -1311.9852 -5406.0 
-1938.3536 -1332.6139 -5491.0 
-1907.4226 -1332.6139 -5491.0 
-1876.4915 -1332.6139 -5491.0 
-1845.5602 -1332.6139 -5491.0 
-1874.4448 -1376.5409 -5672.0 
-1842.4938 -1376.5409 -5672.0 
-1840.8679 -1399.5966 -5767.0 
-1808.3821 -1399.5966 -5767.0 
-1775.896 -1399.5966 -5767.0 
-1772.734 -1423.1375 -5864.0 
-1739.7017 -1423.1375 -5864.0 
-1678.4384 -1399.5966 -5767.0 
-1673.6372 -1423.1375 -5864.0 
-1640.6049 -1423.1375 -5864.0 
-1607.5725 -1423.1375 -5864.0 
-1574.54 -1423.1375 -5864.0 
-1568.3213 -1447.8918 -5966.0 
-1534.7145 -1447.8918 -5966.0 
-1554.7004 -1499.585 -6179.0 
-1519.8939 -1499.585 -6179.0 
-1485.0869 -1499.585 -6179.0 
-1450.2803 -1499.585 -6179.0 
-1415.4736 -1499.585 -6179.0 
-1405.9161 -1527.009 -6292.0 
-1370.4729 -1527.009 -6292.0 
-1335.0295 -1527.009 -6292.0 
-1299.5863 -1527.009 -6292.0 
-1287.449 -1555.1611 -6408.0 
-1275.1764 -1584.7694 -6530.0 
-1262.0983 -1615.1057 -6655.0 
-1248.716 -1646.8982 -6786.0 
-1210.49 -1646.8982 -6786.0 
-1172.2642 -1646.8982 -6786.0 
-1134.038 -1646.8982 -6786.0 
-1300.0858 -1953.9017 -8051.0 
-1284.8126 -2000.7411 -8244.0 
-1268.5669 -2049.5217 -8445.0 
-1220.9958 -2049.5217 -8445.0 
-1145.4956 -2000.7411 -8244.0 
-1073.3267 -1953.9017 -8051.0 
-1027.9747 -1953.9017 -8051.0 
-982.623 -1953.9017 -8051.0 
-937.2713 -1953.9017 -8051.0 
-891.9193 -1953.9017 -8051.0 
-846.56757 -1953.9017 -8051.0 
-820.4225 -2000.7411 -8244.0 
-132.9404 -343.64984 -1416.0 
-124.964005 -343.64984 -1416.0 
-116.98755 -343.64984 -1416.0 
-109.01115 -343.64984 -1416.0 
-100.606575 -342.19373 -1410.0 
-91.94106 -339.5241 -1399.0 
-83.6999 -338.06796 -1393.0 
-75.853004 -338.06796 -1393.0 
-59.20916 -332.72876 -1371.0 
-51.486244 -332.72876 -1371.0 
-43.92293 -333.94223 -1376.0 
-36.329525 -335.39835 -1382.0 
-28.668571 -336.85452 -1388.0 
-20.669584 -333.94223 -1376.0 
-5.1899533 -335.39835 -1382.0 
2.583661 -333.94223 -1376.0 
10.297288 -332.72876 -1371.0 
17.954485 -331.51532 -1366.0 
25.536575 -330.05917 -1360.0 
33.19753 -330.05917 -1360.0 
40.858482 -330.05917 -1360.0 
48.73359 -331.51532 -1366.0 
56.180485 -330.05917 -1360.0 
63.84144 -330.05917 -1360.0 
71.502396 -330.05917 -1360.0 
79.512596 -331.51532 -1366.0 
86.824394 -330.05917 -1360.0 
94.485344 -330.05917 -1360.0 
102.1463 -330.05917 -1360.0 
109.80726 -330.05917 -1360.0 
117.98645 -331.51532 -1366.0 
126.14133 -332.72876 -1371.0 
133.37605 -331.51532 -1366.0 
140.45117 -330.05917 -1360.0 
2886.91 -1332.6139 -5491.0 
2828.0366 -1291.5992 -5322.0 
2815.0542 -1272.184 -5242.0 
2887.9954 -1291.5992 -5322.0 
2874.1116 -1272.184 -5242.0 
2903.6401 -1272.184 -5242.0 
2933.1685 -1272.184 -5242.0 
2962.697 -1272.184 -5242.0 
1746.131 -742.39044 -3059.0 
1763.3625 -742.39044 -3059.0 
1796.8923 -749.1858 -3087.0 
-2321.2466 -987.12964 -3975.0 
-2272.8303 -975.9546 -3930.0 
-2276.4636 -987.12964 -3975.0 
-2254.0723 -987.12964 -3975.0 
-2231.6807 -987.12964 -3975.0 
-2209.2893 -987.12964 -3975.0 
-2212.2053 -998.55304 -4021.0 
-2241.8296 -1022.3932 -4117.0 
-2218.6384 -1022.3932 -4117.0 
-2195.447 -1022.3932 -4117.0 
-2172.2556 -1022.3932 -4117.0 
-2149.0642 -1022.3932 -4117.0 
-2125.873 -1022.3932 -4117.0 
-2102.6816 -1022.3932 -4117.0 
-2104.745 -1034.8099 -4167.0 
-2106.745 -1047.475 -4218.0 
-2082.9846 -1047.475 -4218.0 
-2059.2244 -1047.475 -4218.0 
-2060.5576 -1060.3883 -4270.0 
-2061.7817 -1073.55 -4323.0 
-2037.4302 -1073.55 -4323.0 
-2013.0782 -1073.55 -4323.0 
-2031.1473 -1363.6047 -5491.0 
-1969.2529 -1342.4963 -5406.0 
-1938.8007 -1342.4963 -5406.0 
-1969.7711 -1385.7065 -5580.0 
-1907.4226 -1363.6047 -5491.0 
-1906.9064 -1385.7065 -5580.0 
-1875.4736 -1385.7065 -5580.0 
-1874.4448 -1408.5532 -5672.0 
-1873.3536 -1432.145 -5767.0 
-1840.8679 -1432.145 -5767.0 
-1808.3821 -1432.145 -5767.0 
-1775.896 -1432.145 -5767.0 
-1743.4103 -1432.145 -5767.0 
-1710.9242 -1432.145 -5767.0 
-1678.4384 -1432.145 -5767.0 
-1673.6372 -1456.2335 -5864.0 
-1640.6049 -1456.2335 -5864.0 
-1607.5725 -1456.2335 -5864.0 
-1574.54 -1456.2335 -5864.0 
-1568.3213 -1481.5637 -5966.0 
-1561.725 -1507.6388 -6071.0 
-1554.7004 -1534.4589 -6179.0 
-1519.8939 -1534.4589 -6179.0 
-1459.1298 -1507.6388 -6071.0 
-1450.2803 -1534.4589 -6179.0 
-1415.4736 -1534.4589 -6179.0 
-1380.6667 -1534.4589 -6179.0 
-1370.4729 -1562.5206 -6292.0 
-1335.0295 -1562.5206 -6292.0 
-1299.5863 -1562.5206 -6292.0 
-1287.449 -1591.3275 -6408.0 
-1251.3522 -1591.3275 -6408.0 
-1215.2556 -1591.3275 -6408.0 
-1164.8246 -1621.6243 -6530.0 
-1149.6342 -1652.6661 -6655.0 
-1112.146 -1652.6661 -6655.0 
-1300.0858 -1999.3412 -8051.0 
-1284.8126 -2047.2697 -8244.0 
-1268.5669 -2097.1848 -8445.0 
-1191.9348 -2047.2697 -8244.0 
-1145.4956 -2047.2697 -8244.0 
-1004.60876 -1953.8958 -7868.0 
-960.2879 -1953.8958 -7868.0 
-937.2713 -1999.3412 -8051.0 
-891.9193 -1999.3412 -8051.0 
-846.56757 -1999.3412 -8051.0 
-801.2156 -1999.3412 -8051.0 
-738.683 -1953.8958 -7868.0 
-125.49351 -353.13165 -1422.0 
-116.98755 -351.64166 -1416.0 
-109.01115 -351.64166 -1416.0 
-100.606575 -350.15164 -1410.0 
-91.94106 -347.41998 -1399.0 
-83.39947 -344.6883 -1388.0 
-75.853004 -345.92996 -1393.0 
-59.42509 -341.70828 -1376.0 
-51.67401 -341.70828 -1376.0 
-43.763325 -340.46658 -1371.0 
-36.329525 -343.19827 -1382.0 
-28.544643 -343.19827 -1382.0 
2.5442302 -336.49326 -1355.0 
10.214669 -337.73492 -1360.0 
17.809902 -336.49326 -1355.0 
25.442692 -336.49326 -1355.0 
33.07548 -336.49326 -1355.0 
40.558052 -335.2516 -1350.0 
48.34115 -336.49326 -1355.0 
55.973938 -336.49326 -1355.0 
