ply
format ascii 1.0
comment this is my Proccessing file
element vertex 1670
property float x
property float y
property float z
end_header
1665.717 897.7744 -3059.0 
1648.4856 897.7744 -3059.0 
1631.2539 897.7744 -3059.0 
1628.796 905.992 -3087.0 
1626.0227 914.20966 -3115.0 
1608.4757 914.20966 -3115.0 
1605.2291 922.42725 -3143.0 
1587.5243 922.42725 -3143.0 
1584.3042 930.9383 -3172.0 
1566.4359 930.9383 -3172.0 
1548.568 930.9383 -3172.0 
1530.7 930.9383 -3172.0 
1512.8318 930.9383 -3172.0 
1508.6315 939.44946 -3201.0 
1477.0955 930.9383 -3172.0 
1459.2275 930.9383 -3172.0 
1441.3595 930.9383 -3172.0 
1436.5056 939.44946 -3201.0 
1418.4741 939.44946 -3201.0 
1413.5676 948.254 -3231.0 
1408.7552 957.35205 -3262.0 
1390.3802 957.35205 -3262.0 
1385.0437 966.4502 -3293.0 
1353.6301 957.35205 -3262.0 
1335.2549 957.35205 -3262.0 
1316.8799 957.35205 -3262.0 
1310.845 966.4502 -3293.0 
1292.2952 966.4502 -3293.0 
1273.7457 966.4502 -3293.0 
1267.0121 975.5482 -3324.0 
1248.2878 975.5482 -3324.0 
1229.5636 975.5482 -3324.0 
845.1104 680.8881 -2320.0 
832.0417 680.8881 -2320.0 
818.973 680.8881 -2320.0 
805.9043 680.8881 -2320.0 
803.42957 689.98615 -2351.0 
795.56384 694.68195 -2367.0 
782.23035 694.68195 -2367.0 
768.89685 694.68195 -2367.0 
755.5634 694.68195 -2367.0 
747.5607 699.6712 -2384.0 
734.1314 699.6712 -2384.0 
720.7023 699.6712 -2384.0 
707.273 699.6712 -2384.0 
698.5004 704.367 -2400.0 
689.83307 709.35626 -2417.0 
680.97406 714.3455 -2434.0 
667.26324 714.3455 -2434.0 
653.5523 714.3455 -2434.0 
639.84143 714.3455 -2434.0 
630.5037 719.3348 -2451.0 
616.697 719.3348 -2451.0 
602.8904 719.3348 -2451.0 
589.0837 719.3348 -2451.0 
579.5019 724.61755 -2469.0 
565.5939 724.61755 -2469.0 
555.70776 729.90027 -2487.0 
541.69836 729.90027 -2487.0 
527.6889 729.90027 -2487.0 
513.6795 729.90027 -2487.0 
503.2865 735.18304 -2505.0 
489.17563 735.18304 -2505.0 
475.0648 735.18304 -2505.0 
464.26617 740.4658 -2523.0 
453.4432 746.04205 -2542.0 
439.124 746.04205 -2542.0 
427.81274 751.3248 -2560.0 
413.3921 751.3248 -2560.0 
402.08835 757.19446 -2580.0 
387.55508 757.19446 -2580.0 
373.02182 757.19446 -2580.0 
361.12848 762.77075 -2599.0 
351.82077 774.5102 -2639.0 
336.95505 774.5102 -2639.0 
322.08945 774.5102 -2639.0 
309.55215 780.37994 -2659.0 
292.3581 774.5102 -2639.0 
279.5955 780.37994 -2659.0 
264.6171 780.37994 -2659.0 
253.58195 792.7063 -2701.0 
240.22035 798.86957 -2722.0 
224.88708 798.86957 -2722.0 
209.55391 798.86957 -2722.0 
194.22063 798.86957 -2722.0 
180.26756 805.0328 -2743.0 
164.81612 805.0328 -2743.0 
149.36453 805.0328 -2743.0 
134.9871 811.48944 -2765.0 
118.4615 805.0328 -2743.0 
103.83622 811.48944 -2765.0 
87.55857 805.0328 -2743.0 
72.68533 811.48944 -2765.0 
57.584995 818.2396 -2788.0 
42.210415 824.6963 -2810.0 
26.381535 824.6963 -2810.0 
10.552654 824.6963 -2810.0 
-5.234918 818.2396 -2788.0 
-20.940071 818.2396 -2788.0 
-37.24964 831.74005 -2834.0 
-53.645584 838.4902 -2857.0 
-69.73922 838.4902 -2857.0 
-85.832855 838.4902 -2857.0 
-102.78292 845.5339 -2881.0 
-119.01175 845.5339 -2881.0 
-135.24057 845.5339 -2881.0 
-151.4694 845.5339 -2881.0 
-169.09523 852.5775 -2905.0 
-185.45947 852.5775 -2905.0 
-201.82347 852.5775 -2905.0 
-220.06519 859.9147 -2930.0 
-238.58856 867.25183 -2955.0 
-257.39355 874.589 -2980.0 
-274.1803 874.589 -2980.0 
-341.3263 874.589 -2980.0 
-358.11298 874.589 -2980.0 
-870.8236 2031.5117 -6922.0 
-891.94 1991.5977 -6786.0 
-930.1659 1991.5977 -6786.0 
-968.3918 1991.5977 -6786.0 
-1006.61816 1991.5977 -6786.0 
-1044.8441 1991.5977 -6786.0 
-1104.7761 2031.5117 -6922.0 
-1143.7681 2031.5117 -6922.0 
-1207.0236 2073.1868 -7064.0 
-1221.7526 2031.5117 -6922.0 
-1235.974 1991.5977 -6786.0 
-1274.2 1991.5977 -6786.0 
-1312.4259 1991.5977 -6786.0 
-1405.9835 2073.1868 -7064.0 
-1416.7131 2031.5117 -6922.0 
-1485.5679 2073.1868 -7064.0 
-1525.3597 2073.1868 -7064.0 
-1565.1516 2073.1868 -7064.0 
-1638.3419 2116.3293 -7211.0 
-1678.9625 2116.3293 -7211.0 
-1656.46 1991.5977 -6786.0 
-1661.9708 1953.151 -6655.0 
-1732.9117 1991.5977 -6786.0 
-1771.1383 1991.5977 -6786.0 
-1883.4878 2073.1868 -7064.0 
-1847.59 1991.5977 -6786.0 
-1885.8159 1991.5977 -6786.0 
-1886.8993 1953.151 -6655.0 
-2042.6558 2073.1868 -7064.0 
-2082.4478 2073.1868 -7064.0 
-2122.2397 2073.1868 -7064.0 
-2118.5706 2031.5117 -6922.0 
-2360.9915 2073.1868 -7064.0 
-2352.523 2031.5117 -6922.0 
-2344.5283 1991.5977 -6786.0 
-2586.476 2031.5117 -6922.0 
-2679.328 2073.1868 -7064.0 
-2719.1196 2073.1868 -7064.0 
-2758.9114 2073.1868 -7064.0 
-2742.4438 2031.5117 -6922.0 
-2781.4365 2031.5117 -6922.0 
-2765.0142 1991.5977 -6786.0 
-2803.24 1991.5977 -6786.0 
-2841.466 1991.5977 -6786.0 
-2879.692 1991.5977 -6786.0 
-2861.5896 1953.151 -6655.0 
-2899.0771 1953.151 -6655.0 
-2936.5654 1953.151 -6655.0 
-2974.0535 1953.151 -6655.0 
-3011.5413 1953.151 -6655.0 
-3049.0298 1953.151 -6655.0 
-3028.544 1916.4652 -6530.0 
-3065.328 1916.4652 -6530.0 
-3102.1118 1916.4652 -6530.0 
-3138.8955 1916.4652 -6530.0 
-3059.9353 1846.6155 -6292.0 
-3095.3787 1846.6155 -6292.0 
-3130.8218 1846.6155 -6292.0 
-3224.6384 1880.6598 -6408.0 
-3144.2075 1813.4515 -6179.0 
-3237.1516 1846.6155 -6292.0 
-3272.595 1846.6155 -6292.0 
-3191.8467 1781.755 -6071.0 
-3226.045 1781.755 -6071.0 
-3260.2432 1781.755 -6071.0 
-3294.442 1781.755 -6071.0 
-3271.07 1750.939 -5966.0 
-3194.4473 1692.5352 -5767.0 
-3226.9329 1692.5352 -5767.0 
-3314.2417 1721.0033 -5864.0 
-3405.4978 1750.939 -5966.0 
-3269.6282 1664.6539 -5672.0 
-3301.5789 1664.6539 -5672.0 
-3389.3625 1692.5352 -5767.0 
-3365.48 1664.6539 -5672.0 
1740.205 857.77 -2980.0 
1738.4548 865.2539 -3006.0 
1721.522 865.2539 -3006.0 
1704.589 865.2539 -3006.0 
1687.6559 865.2539 -3006.0 
1700.18 880.5095 -3059.0 
1682.9485 880.5095 -3059.0 
1680.9639 888.5691 -3087.0 
1663.5747 888.5691 -3087.0 
1646.1852 888.5691 -3087.0 
1628.796 888.5691 -3087.0 
1626.0227 896.6287 -3115.0 
1608.4757 896.6287 -3115.0 
1590.9286 896.6287 -3115.0 
1602.1722 913.0357 -3172.0 
1584.3042 913.0357 -3172.0 
1566.4359 913.0357 -3172.0 
1548.568 913.0357 -3172.0 
1516.7054 904.6883 -3143.0 
1512.8318 913.0357 -3172.0 
1494.9637 913.0357 -3172.0 
1490.5999 921.3831 -3201.0 
1459.2275 913.0357 -3172.0 
1441.3595 913.0357 -3172.0 
1423.4912 913.0357 -3172.0 
1418.4741 921.3831 -3201.0 
1413.5676 930.01843 -3231.0 
1408.7552 938.94147 -3262.0 
1390.3802 938.94147 -3262.0 
1372.005 938.94147 -3262.0 
1353.6301 938.94147 -3262.0 
1335.2549 938.94147 -3262.0 
1316.8799 938.94147 -3262.0 
1310.845 947.86456 -3293.0 
1292.2952 947.86456 -3293.0 
1273.7457 947.86456 -3293.0 
1267.0121 956.7878 -3324.0 
1236.6462 947.86456 -3293.0 
1218.0966 947.86456 -3293.0 
839.28204 663.1886 -2304.0 
832.0417 667.7941 -2320.0 
824.26807 672.11176 -2335.0 
805.9043 667.7941 -2320.0 
803.42957 676.7172 -2351.0 
795.56384 681.3227 -2367.0 
782.23035 681.3227 -2367.0 
768.89685 681.3227 -2367.0 
755.5634 681.3227 -2367.0 
742.23 681.3227 -2367.0 
734.1314 686.216 -2384.0 
725.5392 690.8215 -2400.0 
712.0198 690.8215 -2400.0 
703.4482 695.71484 -2417.0 
689.83307 695.71484 -2417.0 
680.97406 700.6081 -2434.0 
662.6028 695.71484 -2417.0 
653.5523 700.6081 -2434.0 
639.84143 700.6081 -2434.0 
626.13055 700.6081 -2434.0 
616.697 705.5014 -2451.0 
602.8904 705.5014 -2451.0 
589.0837 705.5014 -2451.0 
579.5019 710.68256 -2469.0 
565.5939 710.68256 -2469.0 
555.70776 715.8638 -2487.0 
541.69836 715.8638 -2487.0 
527.6889 715.8638 -2487.0 
513.6795 715.8638 -2487.0 
503.2865 721.0449 -2505.0 
492.69064 726.2261 -2523.0 
478.47845 726.2261 -2523.0 
467.76242 731.6951 -2542.0 
453.4432 731.6951 -2542.0 
439.124 731.6951 -2542.0 
427.81274 736.8763 -2560.0 
413.3921 736.8763 -2560.0 
402.08835 742.6331 -2580.0 
387.55508 742.6331 -2580.0 
375.7689 748.10205 -2599.0 
358.4884 742.6331 -2580.0 
349.15448 753.85895 -2619.0 
336.95505 759.6158 -2639.0 
322.08945 759.6158 -2639.0 
309.55215 765.3726 -2659.0 
294.57376 765.3726 -2659.0 
279.5955 765.3726 -2659.0 
264.6171 765.3726 -2659.0 
251.61038 771.41736 -2680.0 
240.22035 783.5067 -2722.0 
224.88708 783.5067 -2722.0 
209.55391 783.5067 -2722.0 
194.22063 783.5067 -2722.0 
178.88747 783.5067 -2722.0 
163.55429 783.5067 -2722.0 
149.36453 789.5514 -2743.0 
133.91307 789.5514 -2743.0 
118.4615 789.5514 -2743.0 
103.83622 795.8839 -2765.0 
88.260826 795.8839 -2765.0 
73.289955 802.5043 -2788.0 
57.584995 802.5043 -2788.0 
41.879944 802.5043 -2788.0 
26.381535 808.83685 -2810.0 
10.552654 808.83685 -2810.0 
-5.234918 802.5043 -2788.0 
-20.940071 802.5043 -2788.0 
-37.24964 815.745 -2834.0 
-53.645584 822.3654 -2857.0 
-69.17779 815.745 -2834.0 
-101.92669 822.3654 -2857.0 
-119.01175 829.2736 -2881.0 
-135.24057 829.2736 -2881.0 
-151.4694 829.2736 -2881.0 
-169.09523 836.1818 -2905.0 
-185.45947 836.1818 -2905.0 
-201.82347 836.1818 -2905.0 
-218.1875 836.1818 -2905.0 
-236.57005 843.3779 -2930.0 
-255.23422 850.574 -2955.0 
-274.1803 857.77 -2980.0 
-293.50543 865.2539 -3006.0 
-310.4384 865.2539 -3006.0 
-327.37134 865.2539 -3006.0 
-341.3263 857.77 -2980.0 
-364.48215 873.02563 -3033.0 
-378.17044 865.2539 -3006.0 
-948.80756 1992.4442 -6922.0 
-987.79956 1992.4442 -6922.0 
-1026.7921 1992.4442 -6922.0 
-1065.784 1992.4442 -6922.0 
-1127.4398 2033.3179 -7064.0 
-1167.2317 2033.3179 -7064.0 
-1232.1414 2075.6306 -7211.0 
-1272.762 2075.6306 -7211.0 
-1260.7446 1992.4442 -6922.0 
-1299.7366 1992.4442 -6922.0 
-1338.7285 1992.4442 -6922.0 
-1435.2417 2075.6306 -7211.0 
-1475.8622 2075.6306 -7211.0 
-1516.482 2075.6306 -7211.0 
-1557.102 2075.6306 -7211.0 
-1597.722 2075.6306 -7211.0 
-1638.3419 2075.6306 -7211.0 
-1678.9625 2075.6306 -7211.0 
-1684.5278 2033.3179 -7064.0 
-1656.46 1953.2976 -6786.0 
-1694.6859 1953.2976 -6786.0 
-1803.9036 2033.3179 -7064.0 
-1843.6958 2033.3179 -7064.0 
-1922.6826 2075.6306 -7211.0 
-2042.6558 2033.3179 -7064.0 
-2082.4478 2033.3179 -7064.0 
-2122.2397 2033.3179 -7064.0 
-2162.0315 2033.3179 -7064.0 
-2410.123 2075.6306 -7211.0 
-2306.3018 1953.2976 -6786.0 
-2344.5283 1953.2976 -6786.0 
-2599.7434 2033.3179 -7064.0 
-2639.5356 2033.3179 -7064.0 
-2735.0837 2075.6306 -7211.0 
-2775.7036 2075.6306 -7211.0 
-2703.452 1992.4442 -6922.0 
-2742.4438 1992.4442 -6922.0 
-2726.788 1953.2976 -6786.0 
-2820.4285 1992.4442 -6922.0 
-2859.4204 1992.4442 -6922.0 
-2841.466 1953.2976 -6786.0 
-2824.1008 1915.5905 -6655.0 
-2861.5896 1915.5905 -6655.0 
-2844.6243 1879.6101 -6530.0 
-2936.5654 1915.5905 -6655.0 
-2974.0535 1915.5905 -6655.0 
-3011.5413 1915.5905 -6655.0 
-3049.0298 1915.5905 -6655.0 
-3028.544 1879.6101 -6530.0 
-3065.328 1879.6101 -6530.0 
-2989.0486 1811.1036 -6292.0 
-3024.4917 1811.1036 -6292.0 
-3004.981 1778.5774 -6179.0 
-3039.7878 1778.5774 -6179.0 
-3074.5942 1778.5774 -6179.0 
-3109.401 1778.5774 -6179.0 
-3144.2075 1778.5774 -6179.0 
-3123.45 1747.4905 -6071.0 
-3213.8215 1778.5774 -6179.0 
-3136.6426 1717.2671 -5966.0 
-3170.2493 1717.2671 -5966.0 
-3203.8562 1717.2671 -5966.0 
-3237.4634 1717.2671 -5966.0 
-3271.07 1717.2671 -5966.0 
-3362.8384 1747.4905 -6071.0 
-3338.2837 1717.2671 -5966.0 
-3371.8906 1717.2671 -5966.0 
-3347.2744 1687.9072 -5864.0 
-3324.3909 1659.9865 -5767.0 
-3301.5789 1632.6414 -5672.0 
-3389.3625 1659.9865 -5767.0 
-3365.48 1632.6414 -5672.0 
1740.205 840.951 -2980.0 
1723.4185 840.951 -2980.0 
1721.522 848.28815 -3006.0 
1704.589 848.28815 -3006.0 
1687.6559 848.28815 -3006.0 
1700.18 863.2447 -3059.0 
1682.9485 863.2447 -3059.0 
1680.9639 871.14624 -3087.0 
1663.5747 871.14624 -3087.0 
1646.1852 871.14624 -3087.0 
1628.796 871.14624 -3087.0 
1611.4066 871.14624 -3087.0 
1594.0175 871.14624 -3087.0 
1605.2291 886.94934 -3143.0 
1602.1722 895.13306 -3172.0 
1584.3042 895.13306 -3172.0 
1566.4359 895.13306 -3172.0 
1534.4102 886.94934 -3143.0 
1516.7054 886.94934 -3143.0 
1499.0006 886.94934 -3143.0 
1494.9637 895.13306 -3172.0 
1477.0955 895.13306 -3172.0 
1459.2275 895.13306 -3172.0 
1441.3595 895.13306 -3172.0 
1423.4912 895.13306 -3172.0 
1405.6233 895.13306 -3172.0 
1400.4426 903.31683 -3201.0 
1408.7552 920.53094 -3262.0 
1390.3802 920.53094 -3262.0 
1372.005 920.53094 -3262.0 
1353.6301 920.53094 -3262.0 
1335.2549 920.53094 -3262.0 
1316.8799 920.53094 -3262.0 
1310.845 929.27905 -3293.0 
1292.2952 929.27905 -3293.0 
1261.7548 920.53094 -3262.0 
1255.1959 929.27905 -3293.0 
1236.6462 929.27905 -3293.0 
1218.0966 929.27905 -3293.0 
845.1104 654.70013 -2320.0 
832.0417 654.70013 -2320.0 
824.26807 658.9331 -2335.0 
811.11487 658.9331 -2335.0 
803.42957 663.44824 -2351.0 
795.56384 667.96344 -2367.0 
782.23035 667.96344 -2367.0 
768.89685 667.96344 -2367.0 
755.5634 667.96344 -2367.0 
742.23 667.96344 -2367.0 
734.1314 672.7608 -2384.0 
725.5392 677.276 -2400.0 
717.06323 682.07336 -2417.0 
703.4482 682.07336 -2417.0 
694.685 686.8707 -2434.0 
680.97406 686.8707 -2434.0 
667.26324 686.8707 -2434.0 
653.5523 686.8707 -2434.0 
639.84143 686.8707 -2434.0 
626.13055 686.8707 -2434.0 
616.697 691.6681 -2451.0 
602.8904 691.6681 -2451.0 
589.0837 691.6681 -2451.0 
579.5019 696.7477 -2469.0 
565.5939 696.7477 -2469.0 
555.70776 701.8272 -2487.0 
541.69836 701.8272 -2487.0 
531.5081 706.9068 -2505.0 
513.6795 701.8272 -2487.0 
503.2865 706.9068 -2505.0 
492.69064 711.9864 -2523.0 
478.47845 711.9864 -2523.0 
467.76242 717.34814 -2542.0 
456.65405 722.4277 -2560.0 
442.23343 722.4277 -2560.0 
427.81274 722.4277 -2560.0 
413.3921 722.4277 -2560.0 
402.08835 728.07166 -2580.0 
387.55508 728.07166 -2580.0 
373.02182 728.07166 -2580.0 
361.12848 733.4334 -2599.0 
349.15448 739.0774 -2619.0 
336.95505 744.7214 -2639.0 
322.08945 744.7214 -2639.0 
309.55215 750.36536 -2659.0 
294.57376 750.36536 -2659.0 
279.5955 750.36536 -2659.0 
262.62674 744.7214 -2639.0 
249.6388 750.36536 -2659.0 
236.5138 756.2915 -2680.0 
224.88708 768.14386 -2722.0 
209.55391 768.14386 -2722.0 
194.22063 768.14386 -2722.0 
178.88747 768.14386 -2722.0 
163.55429 768.14386 -2722.0 
149.36453 774.07 -2743.0 
133.91307 774.07 -2743.0 
118.4615 774.07 -2743.0 
103.83622 780.2784 -2765.0 
88.995 786.7689 -2788.0 
73.289955 786.7689 -2788.0 
58.0394 792.9773 -2810.0 
42.210415 792.9773 -2810.0 
26.381535 792.9773 -2810.0 
10.552654 792.9773 -2810.0 
-5.234918 786.7689 -2788.0 
-21.105309 792.9773 -2810.0 
-36.934193 792.9773 -2810.0 
-53.645584 806.2406 -2857.0 
-69.17779 799.75006 -2834.0 
-85.14186 799.75006 -2834.0 
-101.10615 799.75006 -2834.0 
-119.01175 813.01337 -2881.0 
-134.11397 806.2406 -2857.0 
-151.4694 813.01337 -2881.0 
-170.55043 826.84106 -2930.0 
-187.05551 826.84106 -2930.0 
-201.82347 819.78613 -2905.0 
-218.1875 819.78613 -2905.0 
-236.57005 826.84106 -2930.0 
-253.07487 826.84106 -2930.0 
-271.88013 833.89606 -2955.0 
-293.50543 848.28815 -3006.0 
-310.4384 848.28815 -3006.0 
-327.37134 848.28815 -3006.0 
-344.30432 848.28815 -3006.0 
-364.48215 855.90753 -3033.0 
-381.56717 855.90753 -3033.0 
-1065.784 1953.3768 -6922.0 
-1127.4398 1993.449 -7064.0 
-1167.2317 1993.449 -7064.0 
-1207.0236 1993.449 -7064.0 
-1246.8159 1993.449 -7064.0 
-1286.6079 1993.449 -7064.0 
-1274.2 1914.9978 -6786.0 
-1366.1917 1993.449 -7064.0 
-1465.8932 2078.3906 -7365.0 
-1507.381 2078.3906 -7365.0 
-1516.482 2034.9321 -7211.0 
-1557.102 2034.9321 -7211.0 
-1597.722 2034.9321 -7211.0 
-1638.3419 2034.9321 -7211.0 
-1678.9625 2034.9321 -7211.0 
-1719.5824 2034.9321 -7211.0 
-1724.3197 1993.449 -7064.0 
-1728.6495 1953.3768 -6922.0 
-1803.9036 1993.449 -7064.0 
-1882.0627 2034.9321 -7211.0 
-1922.6826 2034.9321 -7211.0 
-2042.6558 1993.449 -7064.0 
-2125.783 2034.9321 -7211.0 
-2122.2397 1993.449 -7064.0 
-2162.0315 1993.449 -7064.0 
-2201.8235 1993.449 -7064.0 
-2420.107 2078.3906 -7365.0 
-2410.123 2034.9321 -7211.0 
-2450.743 2034.9321 -7211.0 
-2491.3635 2034.9321 -7211.0 
-2586.0571 2078.3906 -7365.0 
-2559.9514 1993.449 -7064.0 
-2599.7434 1993.449 -7064.0 
-2586.476 1953.3768 -6922.0 
-2679.328 1993.449 -7064.0 
-2719.1196 1993.449 -7064.0 
-2703.452 1953.3768 -6922.0 
-2742.4438 1953.3768 -6922.0 
-2824.1008 1878.0298 -6655.0 
-2861.5896 1878.0298 -6655.0 
-2899.0771 1878.0298 -6655.0 
-2994.37 1914.9978 -6786.0 
-3032.596 1914.9978 -6786.0 
-3011.5413 1878.0298 -6655.0 
-2991.7603 1842.755 -6530.0 
-3086.5176 1878.0298 -6655.0 
-3124.0056 1878.0298 -6655.0 
-3044.1548 1808.3268 -6408.0 
-3024.4917 1775.5918 -6292.0 
-2952.4583 1713.226 -6071.0 
-3039.7878 1743.7034 -6179.0 
-3074.5942 1743.7034 -6179.0 
-3109.401 1743.7034 -6179.0 
-3035.8218 1683.5952 -5966.0 
-3069.429 1683.5952 -5966.0 
-3103.0356 1683.5952 -5966.0 
-3136.6426 1683.5952 -5966.0 
-3170.2493 1683.5952 -5966.0 
-3203.8562 1683.5952 -5966.0 
-3294.442 1713.226 -6071.0 
-3271.07 1683.5952 -5966.0 
-3304.677 1683.5952 -5966.0 
-3338.2837 1683.5952 -5966.0 
-3314.2417 1654.8109 -5864.0 
-3347.2744 1654.8109 -5864.0 
-3380.3064 1654.8109 -5864.0 
-3472.7114 1683.5952 -5966.0 
-3389.3625 1627.4377 -5767.0 
-3365.48 1600.6289 -5672.0 
-3342.325 1574.6666 -5580.0 
1740.205 824.13196 -2980.0 
1723.4185 824.13196 -2980.0 
1721.522 831.3224 -3006.0 
1704.589 831.3224 -3006.0 
1702.8145 838.78937 -3033.0 
1700.18 845.9798 -3059.0 
1682.9485 845.9798 -3059.0 
1665.717 845.9798 -3059.0 
1648.4856 845.9798 -3059.0 
1646.1852 853.7233 -3087.0 
1628.796 853.7233 -3087.0 
1611.4066 853.7233 -3087.0 
1594.0175 853.7233 -3087.0 
1590.9286 861.4668 -3115.0 
1602.1722 877.23047 -3172.0 
1584.3042 877.23047 -3172.0 
1566.4359 877.23047 -3172.0 
1548.568 877.23047 -3172.0 
1516.7054 869.2103 -3143.0 
1499.0006 869.2103 -3143.0 
1494.9637 877.23047 -3172.0 
1477.0955 877.23047 -3172.0 
1459.2275 877.23047 -3172.0 
1441.3595 877.23047 -3172.0 
1423.4912 877.23047 -3172.0 
1418.4741 885.2505 -3201.0 
1400.4426 885.2505 -3201.0 
1395.3673 893.5471 -3231.0 
1377.1669 893.5471 -3231.0 
1372.005 902.12036 -3262.0 
1353.6301 902.12036 -3262.0 
1335.2549 902.12036 -3262.0 
1316.8799 902.12036 -3262.0 
1310.845 910.6935 -3293.0 
1292.2952 910.6935 -3293.0 
1273.7457 910.6935 -3293.0 
1255.1959 910.6935 -3293.0 
1236.6462 910.6935 -3293.0 
1218.0966 910.6935 -3293.0 
845.1104 641.6061 -2320.0 
837.42126 645.7544 -2335.0 
824.26807 645.7544 -2335.0 
816.67285 650.1793 -2351.0 
803.42957 650.1793 -2351.0 
795.56384 654.6041 -2367.0 
782.23035 654.6041 -2367.0 
768.89685 654.6041 -2367.0 
755.5634 654.6041 -2367.0 
742.23 654.6041 -2367.0 
734.1314 659.3056 -2384.0 
720.7023 659.3056 -2384.0 
712.0198 663.73047 -2400.0 
703.4482 668.4319 -2417.0 
694.685 673.13336 -2434.0 
680.97406 673.13336 -2434.0 
667.26324 673.13336 -2434.0 
653.5523 673.13336 -2434.0 
644.3103 677.8347 -2451.0 
630.5037 677.8347 -2451.0 
616.697 677.8347 -2451.0 
602.8904 677.8347 -2451.0 
589.0837 677.8347 -2451.0 
579.5019 682.81274 -2469.0 
565.5939 682.81274 -2469.0 
555.70776 687.79065 -2487.0 
541.69836 687.79065 -2487.0 
527.6889 687.79065 -2487.0 
517.3973 692.7687 -2505.0 
503.2865 692.7687 -2505.0 
492.69064 697.74664 -2523.0 
482.08176 703.00116 -2542.0 
467.76242 703.00116 -2542.0 
456.65405 707.9791 -2560.0 
442.23343 707.9791 -2560.0 
427.81274 707.9791 -2560.0 
413.3921 707.9791 -2560.0 
398.9714 707.9791 -2560.0 
387.55508 713.51025 -2580.0 
373.02182 713.51025 -2580.0 
361.12848 718.7648 -2599.0 
349.15448 724.2959 -2619.0 
336.95505 729.82697 -2639.0 
322.08945 729.82697 -2639.0 
307.22382 729.82697 -2639.0 
292.3581 729.82697 -2639.0 
279.5955 735.35803 -2659.0 
262.62674 729.82697 -2639.0 
249.6388 735.35803 -2659.0 
234.6605 735.35803 -2659.0 
224.88708 752.78094 -2722.0 
209.55391 752.78094 -2722.0 
194.22063 752.78094 -2722.0 
178.88747 752.78094 -2722.0 
163.55429 752.78094 -2722.0 
149.36453 758.5886 -2743.0 
133.91307 758.5886 -2743.0 
118.4615 758.5886 -2743.0 
103.83622 764.6728 -2765.0 
88.995 771.03357 -2788.0 
73.289955 771.03357 -2788.0 
58.0394 777.11774 -2810.0 
42.57093 783.75507 -2834.0 
26.381535 777.11774 -2810.0 
10.552654 777.11774 -2810.0 
-5.234918 771.03357 -2788.0 
-21.105309 777.11774 -2810.0 
-37.24964 783.75507 -2834.0 
-53.213715 783.75507 -2834.0 
-68.59195 777.11774 -2810.0 
-85.14186 783.75507 -2834.0 
-101.92669 790.1158 -2857.0 
-119.01175 796.7531 -2881.0 
-134.11397 790.1158 -2857.0 
-151.4694 796.7531 -2881.0 
-170.55043 810.30426 -2930.0 
-187.05551 810.30426 -2930.0 
-203.56033 810.30426 -2930.0 
-218.1875 803.3904 -2905.0 
-234.55153 803.3904 -2905.0 
-250.91554 803.3904 -2905.0 
-269.57996 810.30426 -2930.0 
-290.96677 824.13196 -2980.0 
-313.22675 838.78937 -3033.0 
-330.31183 838.78937 -3033.0 
-344.30432 831.3224 -3006.0 
-361.23746 831.3224 -3006.0 
-381.56717 838.78937 -3033.0 
-1150.9015 1994.2336 -7211.0 
-1191.5215 1994.2336 -7211.0 
-1232.1414 1994.2336 -7211.0 
-1272.762 1994.2336 -7211.0 
-1313.3818 1994.2336 -7211.0 
-1382.9182 2036.8229 -7365.0 
-1424.4056 2036.8229 -7365.0 
-1465.8932 2036.8229 -7365.0 
-1507.381 2036.8229 -7365.0 
-1548.8685 2036.8229 -7365.0 
-1590.356 2036.8229 -7365.0 
-1597.722 1994.2336 -7211.0 
-1673.3309 2036.8229 -7365.0 
-1714.8187 2036.8229 -7365.0 
-1756.3063 2036.8229 -7365.0 
-1724.3197 1953.5801 -7064.0 
-1764.1116 1953.5801 -7064.0 
-1841.4421 1994.2336 -7211.0 
-1882.0627 1994.2336 -7211.0 
-1922.6826 1994.2336 -7211.0 
-2129.694 2036.8229 -7365.0 
-2218.3494 2081.0715 -7525.0 
-2166.4028 1994.2336 -7211.0 
-2254.1565 2036.8229 -7365.0 
-2247.6428 1994.2336 -7211.0 
-2378.6194 2036.8229 -7365.0 
-2472.6821 2081.0715 -7525.0 
-2515.071 2081.0715 -7525.0 
-2503.0818 2036.8229 -7365.0 
-2544.5698 2036.8229 -7365.0 
-2586.0571 2036.8229 -7365.0 
-2627.5447 2036.8229 -7365.0 
-2613.2234 1994.2336 -7211.0 
-2653.8435 1994.2336 -7211.0 
-2639.5356 1953.5801 -7064.0 
-2679.328 1953.5801 -7064.0 
-2664.46 1914.3093 -6922.0 
-2758.9114 1953.5801 -7064.0 
-2798.7034 1953.5801 -7064.0 
-2726.788 1876.698 -6786.0 
-2824.1008 1840.4692 -6655.0 
-2861.5896 1840.4692 -6655.0 
-2899.0771 1840.4692 -6655.0 
-2936.5654 1840.4692 -6655.0 
-2974.0535 1840.4692 -6655.0 
-3011.5413 1840.4692 -6655.0 
-2991.7603 1805.8999 -6530.0 
-3028.544 1805.8999 -6530.0 
-3065.328 1805.8999 -6530.0 
-3044.1548 1772.1604 -6408.0 
-3024.4917 1740.0801 -6292.0 
-2952.4583 1678.9615 -6071.0 
-2986.6565 1678.9615 -6071.0 
-3020.8547 1678.9615 -6071.0 
-3055.0532 1678.9615 -6071.0 
-3035.8218 1649.9233 -5966.0 
-3069.429 1649.9233 -5966.0 
-3103.0356 1649.9233 -5966.0 
-3136.6426 1649.9233 -5966.0 
-3170.2493 1649.9233 -5966.0 
-3260.2432 1678.9615 -6071.0 
-3237.4634 1649.9233 -5966.0 
-3271.07 1649.9233 -5966.0 
-3304.677 1649.9233 -5966.0 
-3338.2837 1649.9233 -5966.0 
-3259.4187 1594.889 -5767.0 
-3291.905 1594.889 -5767.0 
-3324.3909 1594.889 -5767.0 
-3413.3389 1621.7147 -5864.0 
-3446.371 1621.7147 -5864.0 
-3421.8484 1594.889 -5767.0 
-3397.4314 1568.6163 -5672.0 
1755.388 814.3567 -3006.0 
1738.4548 814.3567 -3006.0 
1721.522 814.3567 -3006.0 
1719.8997 821.6712 -3033.0 
1717.4117 828.7149 -3059.0 
1700.18 828.7149 -3059.0 
1682.9485 828.7149 -3059.0 
1651.5592 821.6712 -3033.0 
1648.4856 828.7149 -3059.0 
1646.1852 836.3004 -3087.0 
1628.796 836.3004 -3087.0 
1611.4066 836.3004 -3087.0 
1594.0175 836.3004 -3087.0 
1576.6283 836.3004 -3087.0 
1573.3816 843.8859 -3115.0 
1569.8197 851.4714 -3143.0 
1566.4359 859.32776 -3172.0 
1562.7257 867.1842 -3201.0 
1530.7 859.32776 -3172.0 
1499.0006 851.4714 -3143.0 
1494.9637 859.32776 -3172.0 
1463.5912 851.4714 -3143.0 
1445.8865 851.4714 -3143.0 
1441.3595 859.32776 -3172.0 
1436.5056 867.1842 -3201.0 
1431.7682 875.3115 -3231.0 
1413.5676 875.3115 -3231.0 
1408.7552 883.7097 -3262.0 
1390.3802 883.7097 -3262.0 
1372.005 883.7097 -3262.0 
1353.6301 883.7097 -3262.0 
1335.2549 883.7097 -3262.0 
1316.8799 883.7097 -3262.0 
1298.5049 883.7097 -3262.0 
1292.2952 892.1079 -3293.0 
1273.7457 892.1079 -3293.0 
1255.1959 892.1079 -3293.0 
1236.6462 892.1079 -3293.0 
1218.0966 892.1079 -3293.0 
845.1104 628.5121 -2320.0 
832.0417 628.5121 -2320.0 
818.973 628.5121 -2320.0 
811.11487 632.57574 -2335.0 
803.42957 636.91034 -2351.0 
795.56384 641.24493 -2367.0 
782.23035 641.24493 -2367.0 
768.89685 641.24493 -2367.0 
755.5634 641.24493 -2367.0 
742.23 641.24493 -2367.0 
734.1314 645.8504 -2384.0 
720.7023 645.8504 -2384.0 
707.273 645.8504 -2384.0 
698.5004 650.18494 -2400.0 
689.83307 654.79047 -2417.0 
680.97406 659.3959 -2434.0 
662.6028 654.79047 -2417.0 
653.5523 659.3959 -2434.0 
644.3103 664.0014 -2451.0 
630.5037 664.0014 -2451.0 
616.697 664.0014 -2451.0 
602.8904 664.0014 -2451.0 
589.0837 664.0014 -2451.0 
575.2771 664.0014 -2451.0 
565.5939 668.87775 -2469.0 
555.70776 673.75415 -2487.0 
541.69836 673.75415 -2487.0 
527.6889 673.75415 -2487.0 
517.3973 678.6305 -2505.0 
503.2865 678.6305 -2505.0 
492.69064 683.50696 -2523.0 
478.47845 683.50696 -2523.0 
467.76242 688.65424 -2542.0 
453.4432 688.65424 -2542.0 
442.23343 693.5306 -2560.0 
427.81274 693.5306 -2560.0 
413.3921 693.5306 -2560.0 
398.9714 693.5306 -2560.0 
387.55508 698.94885 -2580.0 
373.02182 698.94885 -2580.0 
361.12848 704.0961 -2599.0 
349.15448 709.51434 -2619.0 
334.4014 709.51434 -2619.0 
322.08945 714.9325 -2639.0 
307.22382 714.9325 -2639.0 
292.3581 714.9325 -2639.0 
279.5955 720.3507 -2659.0 
262.62674 714.9325 -2639.0 
249.6388 720.3507 -2659.0 
236.5138 726.0399 -2680.0 
224.88708 737.4181 -2722.0 
209.55391 737.4181 -2722.0 
194.22063 737.4181 -2722.0 
178.88747 737.4181 -2722.0 
163.55429 737.4181 -2722.0 
149.36453 743.10724 -2743.0 
133.91307 743.10724 -2743.0 
118.4615 743.10724 -2743.0 
103.83622 749.06726 -2765.0 
88.260826 749.06726 -2765.0 
73.289955 755.29816 -2788.0 
58.0394 761.25824 -2810.0 
42.210415 761.25824 -2810.0 
26.381535 761.25824 -2810.0 
10.552654 761.25824 -2810.0 
-5.276227 761.25824 -2810.0 
-21.105309 761.25824 -2810.0 
-37.24964 767.7601 -2834.0 
-53.213715 767.7601 -2834.0 
-69.73922 773.991 -2857.0 
-86.55389 780.49286 -2881.0 
-102.78292 780.49286 -2881.0 
-119.01175 780.49286 -2881.0 
-135.24057 780.49286 -2881.0 
-152.7312 786.99475 -2905.0 
-169.09523 786.99475 -2905.0 
-187.05551 793.7675 -2930.0 
-201.82347 786.99475 -2905.0 
-220.06519 793.7675 -2930.0 
-234.55153 786.99475 -2905.0 
-250.91554 786.99475 -2905.0 
-267.2798 786.99475 -2905.0 
-286.08478 793.7675 -2930.0 
-305.17148 800.5402 -2955.0 
-324.5398 807.313 -2980.0 
-341.3263 807.313 -2980.0 
-361.23746 814.3567 -3006.0 
-381.56717 821.6712 -3033.0 
-1175.4805 1995.255 -7365.0 
-1191.5215 1953.5349 -7211.0 
-1258.4554 1995.255 -7365.0 
-1299.9432 1995.255 -7365.0 
-1341.4308 1995.255 -7365.0 
-1382.9182 1995.255 -7365.0 
-1424.4056 1995.255 -7365.0 
-1497.7388 2038.6007 -7525.0 
-1574.5122 2084.1138 -7693.0 
-1582.5167 2038.6007 -7525.0 
-1590.356 1995.255 -7365.0 
-1667.2941 2038.6007 -7525.0 
-1709.683 2038.6007 -7525.0 
-1714.8187 1995.255 -7365.0 
-1794.4609 2038.6007 -7525.0 
-1760.2024 1953.5349 -7211.0 
-1839.2811 1995.255 -7365.0 
-1841.4421 1953.5349 -7211.0 
-1922.2565 1995.255 -7365.0 
-2218.3494 2038.6007 -7525.0 
-2260.738 2038.6007 -7525.0 
-2303.1267 2038.6007 -7525.0 
-2295.644 1995.255 -7365.0 
-2387.9045 2038.6007 -7525.0 
-2430.2935 2038.6007 -7525.0 
-2527.8862 2084.1138 -7693.0 
-2571.2212 2084.1138 -7693.0 
-2503.0818 1995.255 -7365.0 
-2491.3635 1953.5349 -7211.0 
-2531.9834 1953.5349 -7211.0 
-2572.6035 1953.5349 -7211.0 
-2613.2234 1953.5349 -7211.0 
-2653.8435 1953.5349 -7211.0 
-2639.5356 1913.7112 -7064.0 
-2625.468 1875.2418 -6922.0 
-2664.46 1875.2418 -6922.0 
-2703.452 1875.2418 -6922.0 
-2742.4438 1875.2418 -6922.0 
-2726.788 1838.398 -6786.0 
-2765.0142 1838.398 -6786.0 
-2749.125 1802.9087 -6655.0 
-2786.613 1802.9087 -6655.0 
-2824.1008 1802.9087 -6655.0 
-2861.5896 1802.9087 -6655.0 
-2899.0771 1802.9087 -6655.0 
-2936.5654 1802.9087 -6655.0 
-3032.596 1838.398 -6786.0 
-3070.8218 1838.398 -6786.0 
-3049.0298 1802.9087 -6655.0 
-3028.544 1769.0449 -6530.0 
-3065.328 1769.0449 -6530.0 
-3044.1548 1735.9938 -6408.0 
-3024.4917 1704.5682 -6292.0 
-3004.981 1673.9553 -6179.0 
-3039.7878 1673.9553 -6179.0 
-3074.5942 1673.9553 -6179.0 
-3055.0532 1644.697 -6071.0 
-3035.8218 1616.2515 -5966.0 
-3069.429 1616.2515 -5966.0 
-3103.0356 1616.2515 -5966.0 
-3083.0156 1588.6185 -5864.0 
-3170.2493 1616.2515 -5966.0 
-3203.8562 1616.2515 -5966.0 
-3237.4634 1616.2515 -5966.0 
-3271.07 1616.2515 -5966.0 
-3304.677 1616.2515 -5966.0 
-3281.2097 1588.6185 -5864.0 
-3205.7263 1536.6038 -5672.0 
-3291.905 1562.3403 -5767.0 
-3380.3064 1588.6185 -5864.0 
-3413.3389 1588.6185 -5864.0 
-3446.371 1588.6185 -5864.0 
-3421.8484 1562.3403 -5767.0 
-3397.4314 1536.6038 -5672.0 
1771.155 804.55304 -3033.0 
1738.4548 797.3908 -3006.0 
1721.522 797.3908 -3006.0 
1719.8997 804.55304 -3033.0 
1717.4117 811.44995 -3059.0 
1700.18 811.44995 -3059.0 
1682.9485 811.44995 -3059.0 
1665.717 811.44995 -3059.0 
1648.4856 811.44995 -3059.0 
1646.1852 818.87744 -3087.0 
1628.796 818.87744 -3087.0 
1611.4066 818.87744 -3087.0 
1594.0175 818.87744 -3087.0 
1576.6283 818.87744 -3087.0 
1573.3816 826.3049 -3115.0 
1569.8197 833.73236 -3143.0 
1566.4359 841.42505 -3172.0 
1562.7257 849.1178 -3201.0 
1516.7054 833.73236 -3143.0 
1499.0006 833.73236 -3143.0 
1494.9637 841.42505 -3172.0 
1477.0955 841.42505 -3172.0 
1459.2275 841.42505 -3172.0 
1441.3595 841.42505 -3172.0 
1423.4912 841.42505 -3172.0 
1418.4741 849.1178 -3201.0 
1400.4426 849.1178 -3201.0 
1395.3673 857.07574 -3231.0 
1390.3802 865.299 -3262.0 
1372.005 865.299 -3262.0 
1353.6301 865.299 -3262.0 
1335.2549 865.299 -3262.0 
1304.3651 857.07574 -3231.0 
1298.5049 865.299 -3262.0 
1292.2952 873.5223 -3293.0 
1273.7457 873.5223 -3293.0 
1255.1959 873.5223 -3293.0 
1236.6462 873.5223 -3293.0 
1218.0966 873.5223 -3293.0 
1210.8392 881.7456 -3324.0 
1192.115 881.7456 -3324.0 
1173.3906 881.7456 -3324.0 
1154.6663 881.7456 -3324.0 
1125.3481 873.5223 -3293.0 
1096.379 865.299 -3262.0 
782.23035 627.88556 -2367.0 
768.89685 627.88556 -2367.0 
755.5634 627.88556 -2367.0 
747.5607 632.39514 -2384.0 
734.1314 632.39514 -2384.0 
720.7023 632.39514 -2384.0 
712.0198 636.6394 -2400.0 
698.5004 636.6394 -2400.0 
689.83307 641.1489 -2417.0 
680.97406 645.65845 -2434.0 
662.6028 641.1489 -2417.0 
653.5523 645.65845 -2434.0 
639.84143 645.65845 -2434.0 
630.5037 650.16797 -2451.0 
616.697 650.16797 -2451.0 
602.8904 650.16797 -2451.0 
584.9978 645.65845 -2434.0 
575.2771 650.16797 -2451.0 
565.5939 654.9428 -2469.0 
551.6858 654.9428 -2469.0 
541.69836 659.7175 -2487.0 
531.5081 664.4924 -2505.0 
517.3973 664.4924 -2505.0 
503.2865 664.4924 -2505.0 
492.69064 669.26715 -2523.0 
475.0648 664.4924 -2505.0 
467.76242 674.3072 -2542.0 
456.65405 679.08203 -2560.0 
442.23343 679.08203 -2560.0 
427.81274 679.08203 -2560.0 
413.3921 679.08203 -2560.0 
398.9714 679.08203 -2560.0 
387.55508 684.3873 -2580.0 
373.02182 684.3873 -2580.0 
358.4884 684.3873 -2580.0 
346.48816 689.4274 -2599.0 
334.4014 694.7327 -2619.0 
322.08945 700.0381 -2639.0 
307.22382 700.0381 -2639.0 
292.3581 700.0381 -2639.0 
279.5955 705.3434 -2659.0 
266.70697 710.91394 -2680.0 
249.6388 705.3434 -2659.0 
234.6605 705.3434 -2659.0 
223.1521 716.48456 -2701.0 
209.55391 722.0552 -2722.0 
194.22063 722.0552 -2722.0 
178.88747 722.0552 -2722.0 
163.55429 722.0552 -2722.0 
148.22102 722.0552 -2722.0 
133.91307 727.6258 -2743.0 
118.4615 727.6258 -2743.0 
103.83622 733.4616 -2765.0 
88.260826 733.4616 -2765.0 
73.289955 739.56274 -2788.0 
57.584995 739.56274 -2788.0 
42.210415 745.3986 -2810.0 
26.381535 745.3986 -2810.0 
10.552654 745.3986 -2810.0 
-5.276227 745.3986 -2810.0 
-21.105309 745.3986 -2810.0 
-36.934193 745.3986 -2810.0 
-52.76307 745.3986 -2810.0 
-69.73922 757.86615 -2857.0 
-86.55389 764.23254 -2881.0 
-102.78292 764.23254 -2881.0 
-119.01175 764.23254 -2881.0 
-135.24057 764.23254 -2881.0 
-151.4694 764.23254 -2881.0 
-167.69823 764.23254 -2881.0 
-185.45947 770.5989 -2905.0 
-201.82347 770.5989 -2905.0 
-218.1875 770.5989 -2905.0 
-236.57005 777.2306 -2930.0 
-250.91554 770.5989 -2905.0 
-267.2798 770.5989 -2905.0 
-286.08478 777.2306 -2930.0 
-302.58963 777.2306 -2930.0 
-321.81714 783.86224 -2955.0 
-341.3263 790.4939 -2980.0 
-361.23746 797.3908 -3006.0 
-381.56717 804.55304 -3033.0 
-1133.993 1953.6873 -7365.0 
-1201.0171 1996.1299 -7525.0 
-1243.4058 1996.1299 -7525.0 
-1285.7946 1996.1299 -7525.0 
-1328.1837 1996.1299 -7525.0 
-1370.5725 1996.1299 -7525.0 
-1412.9613 1996.1299 -7525.0 
-1487.8414 2040.6945 -7693.0 
-1531.1766 2040.6945 -7693.0 
-1574.5122 2040.6945 -7693.0 
-1617.8474 2040.6945 -7693.0 
-1661.1824 2040.6945 -7693.0 
-1704.5175 2040.6945 -7693.0 
-1747.8525 2040.6945 -7693.0 
-1752.0721 1996.1299 -7525.0 
-1794.4609 1996.1299 -7525.0 
-1921.6272 1996.1299 -7525.0 
-1922.2565 1953.6873 -7365.0 
-2319.4648 2087.116 -7868.0 
-2311.2102 2040.6945 -7693.0 
-2303.1267 1996.1299 -7525.0 
-2345.5156 1996.1299 -7525.0 
-2387.9045 1996.1299 -7525.0 
-2484.5513 2040.6945 -7693.0 
-2585.3904 2087.116 -7868.0 
-2571.2212 2040.6945 -7693.0 
-2503.0818 1953.6873 -7365.0 
-2491.3635 1912.8362 -7211.0 
-2531.9834 1912.8362 -7211.0 
-2520.1597 1873.8418 -7064.0 
-2613.2234 1912.8362 -7211.0 
-2653.8435 1912.8362 -7211.0 
-2639.5356 1873.8418 -7064.0 
-2625.468 1836.1741 -6922.0 
-2612.11 1800.0979 -6786.0 
-2650.336 1800.0979 -6786.0 
-2688.5618 1800.0979 -6786.0 
-2726.788 1800.0979 -6786.0 
-2765.0142 1800.0979 -6786.0 
-2803.24 1800.0979 -6786.0 
-2841.466 1800.0979 -6786.0 
-2824.1008 1765.3479 -6655.0 
-2861.5896 1765.3479 -6655.0 
-2899.0771 1765.3479 -6655.0 
-2936.5654 1765.3479 -6655.0 
-2974.0535 1765.3479 -6655.0 
-3011.5413 1765.3479 -6655.0 
-2991.7603 1732.1896 -6530.0 
-3028.544 1732.1896 -6530.0 
-3008.0583 1699.8271 -6408.0 
-3044.1548 1699.8271 -6408.0 
-3024.4917 1669.0563 -6292.0 
-2952.4583 1610.4324 -6071.0 
-3095.3787 1669.0563 -6292.0 
-3074.5942 1639.0812 -6179.0 
-3055.0532 1610.4324 -6071.0 
-3089.2515 1610.4324 -6071.0 
-3123.45 1610.4324 -6071.0 
-3157.6482 1610.4324 -6071.0 
-3191.8467 1610.4324 -6071.0 
-3226.045 1610.4324 -6071.0 
-3203.8562 1582.5795 -5966.0 
-3237.4634 1582.5795 -5966.0 
-3271.07 1582.5795 -5966.0 
-3304.677 1582.5795 -5966.0 
-3281.2097 1555.5222 -5864.0 
-3205.7263 1504.5911 -5672.0 
-3347.2744 1555.5222 -5864.0 
-3380.3064 1555.5222 -5864.0 
-3472.7114 1582.5795 -5966.0 
-3446.371 1555.5222 -5864.0 
-3421.8484 1529.7914 -5767.0 
-3454.3347 1529.7914 -5767.0 
1771.155 787.4349 -3033.0 
1754.0698 787.4349 -3033.0 
1721.522 780.42505 -3006.0 
1719.8997 787.4349 -3033.0 
1702.8145 787.4349 -3033.0 
1700.18 794.18506 -3059.0 
1682.9485 794.18506 -3059.0 
1665.717 794.18506 -3059.0 
1648.4856 794.18506 -3059.0 
1646.1852 801.45447 -3087.0 
1628.796 801.45447 -3087.0 
1611.4066 801.45447 -3087.0 
1608.4757 808.72394 -3115.0 
1590.9286 808.72394 -3115.0 
1573.3816 808.72394 -3115.0 
1569.8197 815.99335 -3143.0 
1566.4359 823.5224 -3172.0 
1548.568 823.5224 -3172.0 
1516.7054 815.99335 -3143.0 
1512.8318 823.5224 -3172.0 
1494.9637 823.5224 -3172.0 
1477.0955 823.5224 -3172.0 
1445.8865 815.99335 -3143.0 
1441.3595 823.5224 -3172.0 
1423.4912 823.5224 -3172.0 
1418.4741 831.05145 -3201.0 
1400.4426 831.05145 -3201.0 
1395.3673 838.84015 -3231.0 
1377.1669 838.84015 -3231.0 
1358.9664 838.84015 -3231.0 
1353.6301 846.8884 -3262.0 
1322.5654 838.84015 -3231.0 
1316.8799 846.8884 -3262.0 
1298.5049 846.8884 -3262.0 
1292.2952 854.9367 -3293.0 
1273.7457 854.9367 -3293.0 
1255.1959 854.9367 -3293.0 
1236.6462 854.9367 -3293.0 
1218.0966 854.9367 -3293.0 
1210.8392 862.985 -3324.0 
1180.9972 854.9367 -3293.0 
1185.0398 871.55255 -3357.0 
1166.1296 871.55255 -3357.0 
1147.2195 871.55255 -3357.0 
1128.3091 871.55255 -3357.0 
1109.399 871.55255 -3357.0 
1101.2084 880.1201 -3390.0 
1082.1124 880.1201 -3390.0 
742.23 614.52637 -2367.0 
734.1314 618.9399 -2384.0 
720.7023 618.9399 -2384.0 
712.0198 623.0939 -2400.0 
698.5004 623.0939 -2400.0 
689.83307 627.5075 -2417.0 
676.2179 627.5075 -2417.0 
662.6028 627.5075 -2417.0 
653.5523 631.921 -2434.0 
639.84143 631.921 -2434.0 
626.13055 631.921 -2434.0 
616.697 636.3346 -2451.0 
602.8904 636.3346 -2451.0 
584.9978 631.921 -2434.0 
575.2771 636.3346 -2451.0 
565.5939 641.0078 -2469.0 
555.70776 645.681 -2487.0 
541.69836 645.681 -2487.0 
531.5081 650.35425 -2505.0 
517.3973 650.35425 -2505.0 
503.2865 650.35425 -2505.0 
492.69064 655.02747 -2523.0 
478.47845 655.02747 -2523.0 
464.26617 655.02747 -2523.0 
456.65405 664.6335 -2560.0 
442.23343 664.6335 -2560.0 
427.81274 664.6335 -2560.0 
413.3921 664.6335 -2560.0 
398.9714 664.6335 -2560.0 
387.55508 669.8259 -2580.0 
373.02182 669.8259 -2580.0 
361.12848 674.7587 -2599.0 
346.48816 674.7587 -2599.0 
334.4014 679.9512 -2619.0 
319.64844 679.9512 -2619.0 
304.89548 679.9512 -2619.0 
290.14243 679.9512 -2619.0 
279.5955 690.33606 -2659.0 
264.6171 690.33606 -2659.0 
247.76111 685.1436 -2639.0 
234.6605 690.33606 -2659.0 
221.41711 695.7882 -2680.0 
206.32053 695.7882 -2680.0 
192.72224 701.24023 -2701.0 
177.50737 701.24023 -2701.0 
163.55429 706.6923 -2722.0 
148.22102 706.6923 -2722.0 
133.91307 712.1444 -2743.0 
118.4615 712.1444 -2743.0 
103.83622 717.8561 -2765.0 
88.260826 717.8561 -2765.0 
73.86828 729.5391 -2810.0 
57.584995 723.8274 -2788.0 
42.210415 729.5391 -2810.0 
26.381535 729.5391 -2810.0 
10.552654 729.5391 -2810.0 
-5.276227 729.5391 -2810.0 
-21.105309 729.5391 -2810.0 
-36.934193 729.5391 -2810.0 
-51.91811 717.8561 -2765.0 
-69.17779 735.77 -2834.0 
-86.55389 747.9723 -2881.0 
-101.92669 741.7414 -2857.0 
-119.01175 747.9723 -2881.0 
-135.24057 747.9723 -2881.0 
-151.4694 747.9723 -2881.0 
-169.09523 754.20325 -2905.0 
-185.45947 754.20325 -2905.0 
-201.82347 754.20325 -2905.0 
-218.1875 754.20325 -2905.0 
-236.57005 760.6938 -2930.0 
-250.91554 754.20325 -2905.0 
-267.2798 754.20325 -2905.0 
-286.08478 760.6938 -2930.0 
-302.58963 760.6938 -2930.0 
-321.81714 767.1843 -2955.0 
-341.3263 773.6749 -2980.0 
-364.48215 787.4349 -3033.0 
-384.8381 794.18506 -3059.0 
-402.0696 794.18506 -3059.0 
-1158.6283 1953.6589 -7525.0 
-1255.7611 2042.7095 -7868.0 
-1271.1655 1997.2756 -7693.0 
-1285.7946 1953.6589 -7525.0 
-1328.1837 1953.6589 -7525.0 
-1370.5725 1953.6589 -7525.0 
-1477.366 2042.7095 -7868.0 
-1521.6868 2042.7095 -7868.0 
-1566.0077 2042.7095 -7868.0 
-1574.5122 1997.2756 -7693.0 
-1654.65 2042.7095 -7868.0 
-1738.4868 2090.2202 -8051.0 
-1743.2917 2042.7095 -7868.0 
-1787.6127 2042.7095 -7868.0 
-1831.9341 2042.7095 -7868.0 
-1876.255 2042.7095 -7868.0 
-1877.8584 1997.2756 -7693.0 
-1921.1934 1997.2756 -7693.0 
-1964.5286 1997.2756 -7693.0 
-2007.8641 1997.2756 -7693.0 
-2051.1992 1997.2756 -7693.0 
-2094.5344 1997.2756 -7693.0 
-2137.8694 1997.2756 -7693.0 
-2133.5713 1953.6589 -7525.0 
-2224.54 1997.2756 -7693.0 
-2267.8752 1997.2756 -7693.0 
-2212.6692 1912.1194 -7365.0 
-2303.1267 1953.6589 -7525.0 
-2345.5156 1953.6589 -7525.0 
-2387.9045 1953.6589 -7525.0 
-2484.5513 1997.2756 -7693.0 
-2527.8862 1997.2756 -7693.0 
-2571.2212 1997.2756 -7693.0 
-2503.0818 1912.1194 -7365.0 
-2491.3635 1872.1375 -7211.0 
-2531.9834 1872.1375 -7211.0 
-2520.1597 1833.9729 -7064.0 
-2613.2234 1872.1375 -7211.0 
-2653.8435 1872.1375 -7211.0 
-2639.5356 1833.9729 -7064.0 
-2625.468 1797.1066 -6922.0 
-2612.11 1761.798 -6786.0 
-2703.452 1797.1066 -6922.0 
-2742.4438 1797.1066 -6922.0 
-2781.4365 1797.1066 -6922.0 
-2820.4285 1797.1066 -6922.0 
-2803.24 1761.798 -6786.0 
-2841.466 1761.798 -6786.0 
-2824.1008 1727.7875 -6655.0 
-2861.5896 1727.7875 -6655.0 
-2899.0771 1727.7875 -6655.0 
-2936.5654 1727.7875 -6655.0 
-2918.1921 1695.3346 -6530.0 
-2899.7683 1663.6606 -6408.0 
-2935.865 1663.6606 -6408.0 
-2971.962 1663.6606 -6408.0 
-2953.6055 1633.5444 -6292.0 
-2989.0486 1633.5444 -6292.0 
-3024.4917 1633.5444 -6292.0 
-3004.981 1604.207 -6179.0 
-3095.3787 1633.5444 -6292.0 
-3074.5942 1604.207 -6179.0 
-3055.0532 1576.1678 -6071.0 
-3089.2515 1576.1678 -6071.0 
-3123.45 1576.1678 -6071.0 
-3157.6482 1576.1678 -6071.0 
-3191.8467 1576.1678 -6071.0 
-3226.045 1576.1678 -6071.0 
-3203.8562 1548.9076 -5966.0 
-3237.4634 1548.9076 -5966.0 
-3271.07 1548.9076 -5966.0 
-3304.677 1548.9076 -5966.0 
-3281.2097 1522.4261 -5864.0 
-3314.2417 1522.4261 -5864.0 
-3347.2744 1522.4261 -5864.0 
-3439.1045 1548.9076 -5966.0 
-3413.3389 1522.4261 -5864.0 
-3389.3625 1497.2427 -5767.0 
-3365.48 1472.5785 -5672.0 
-3397.4314 1472.5785 -5672.0 
1755.388 763.45935 -3006.0 
1738.4548 763.45935 -3006.0 
1721.522 763.45935 -3006.0 
1704.589 763.45935 -3006.0 
1717.4117 776.9202 -3059.0 
1700.18 776.9202 -3059.0 
1682.9485 776.9202 -3059.0 
1665.717 776.9202 -3059.0 
1648.4856 776.9202 -3059.0 
1631.2539 776.9202 -3059.0 
1628.796 784.0316 -3087.0 
1626.0227 791.143 -3115.0 
1608.4757 791.143 -3115.0 
1605.2291 798.2544 -3143.0 
1587.5243 798.2544 -3143.0 
1584.3042 805.61975 -3172.0 
1566.4359 805.61975 -3172.0 
1562.7257 812.98517 -3201.0 
1530.7 805.61975 -3172.0 
1499.0006 798.2544 -3143.0 
1494.9637 805.61975 -3172.0 
1477.0955 805.61975 -3172.0 
1472.5685 812.98517 -3201.0 
1441.3595 805.61975 -3172.0 
1449.9686 820.6045 -3231.0 
1431.7682 820.6045 -3231.0 
1400.4426 812.98517 -3201.0 
1382.4113 812.98517 -3201.0 
1364.3799 812.98517 -3201.0 
1358.9664 820.6045 -3231.0 
1353.6301 828.47784 -3262.0 
1335.2549 828.47784 -3262.0 
1316.8799 828.47784 -3262.0 
1310.845 836.35114 -3293.0 
1292.2952 836.35114 -3293.0 
1273.7457 836.35114 -3293.0 
1255.1959 836.35114 -3293.0 
1236.6462 836.35114 -3293.0 
1218.0966 836.35114 -3293.0 
1199.5468 836.35114 -3293.0 
1180.9972 836.35114 -3293.0 
1173.3906 844.2245 -3324.0 
1166.1296 852.6058 -3357.0 
1135.942 844.2245 -3324.0 
1128.3091 852.6058 -3357.0 
1109.399 852.6058 -3357.0 
1101.2084 860.98706 -3390.0 
1082.1124 860.98706 -3390.0 
737.2128 597.10345 -2351.0 
728.8965 601.16705 -2367.0 
720.7023 605.48474 -2384.0 
712.0198 609.5484 -2400.0 
698.5004 609.5484 -2400.0 
689.83307 613.866 -2417.0 
676.2179 613.866 -2417.0 
667.26324 618.18365 -2434.0 
653.5523 618.18365 -2434.0 
639.84143 618.18365 -2434.0 
626.13055 618.18365 -2434.0 
616.697 622.5013 -2451.0 
607.318 627.0729 -2469.0 
584.9978 618.18365 -2434.0 
575.2771 622.5013 -2451.0 
565.5939 627.0729 -2469.0 
555.70776 631.64453 -2487.0 
541.69836 631.64453 -2487.0 
531.5081 636.2161 -2505.0 
517.3973 636.2161 -2505.0 
503.2865 636.2161 -2505.0 
492.69064 640.7877 -2523.0 
482.08176 645.61334 -2542.0 
471.07468 650.18494 -2560.0 
456.65405 650.18494 -2560.0 
442.23343 650.18494 -2560.0 
427.81274 650.18494 -2560.0 
413.3921 650.18494 -2560.0 
402.08835 655.2645 -2580.0 
387.55508 655.2645 -2580.0 
375.7689 660.0901 -2599.0 
361.12848 660.0901 -2599.0 
349.15448 665.1697 -2619.0 
336.95505 670.2492 -2639.0 
319.64844 665.1697 -2619.0 
304.89548 665.1697 -2619.0 
292.3581 670.2492 -2639.0 
277.49246 670.2492 -2639.0 
262.62674 670.2492 -2639.0 
249.6388 675.3288 -2659.0 
234.6605 675.3288 -2659.0 
219.68211 675.3288 -2659.0 
206.32053 680.66235 -2680.0 
192.72224 685.9959 -2701.0 
177.50737 685.9959 -2701.0 
163.55429 691.32947 -2722.0 
149.36453 696.663 -2743.0 
133.91307 696.663 -2743.0 
118.4615 696.663 -2743.0 
103.83622 702.25055 -2765.0 
88.995 708.09204 -2788.0 
73.289955 708.09204 -2788.0 
57.584995 708.09204 -2788.0 
41.879944 708.09204 -2788.0 
26.381535 713.67957 -2810.0 
10.552654 713.67957 -2810.0 
-5.234918 708.09204 -2788.0 
-21.105309 713.67957 -2810.0 
-36.934193 713.67957 -2810.0 
-52.76307 713.67957 -2810.0 
-69.17779 719.775 -2834.0 
-85.832855 725.6165 -2857.0 
-101.92669 725.6165 -2857.0 
-118.02033 725.6165 -2857.0 
-135.24057 731.71204 -2881.0 
-151.4694 731.71204 -2881.0 
-169.09523 737.8075 -2905.0 
-185.45947 737.8075 -2905.0 
-200.1561 731.71204 -2881.0 
-218.1875 737.8075 -2905.0 
-234.55153 737.8075 -2905.0 
-253.07487 744.157 -2930.0 
-269.57996 744.157 -2930.0 
-286.08478 744.157 -2930.0 
-302.58963 744.157 -2930.0 
-321.81714 750.5064 -2955.0 
-344.30432 763.45935 -3006.0 
-361.23746 763.45935 -3006.0 
-381.56717 770.3168 -3033.0 
-1211.4402 1998.3027 -7868.0 
-1284.9685 2044.7808 -8051.0 
-1300.0819 1998.3027 -7868.0 
-1314.5006 1953.8566 -7693.0 
-1357.8363 1953.8566 -7693.0 
-1433.0452 1998.3027 -7868.0 
-1477.366 1998.3027 -7868.0 
-1521.6868 1998.3027 -7868.0 
-1566.0077 1998.3027 -7868.0 
-1540.1279 1911.1881 -7525.0 
-1654.65 1998.3027 -7868.0 
-1738.4868 2044.7808 -8051.0 
-1743.2917 1998.3027 -7868.0 
-1829.1903 2044.7808 -8051.0 
-1919.8943 2044.7808 -8051.0 
-1920.5758 1998.3027 -7868.0 
-1964.8966 1998.3027 -7868.0 
-2009.2175 1998.3027 -7868.0 
-2007.8641 1953.8566 -7693.0 
-2051.1992 1953.8566 -7693.0 
-2094.5344 1953.8566 -7693.0 
-2137.8694 1953.8566 -7693.0 
-2181.2046 1953.8566 -7693.0 
-2224.54 1953.8566 -7693.0 
-2171.1816 1870.5515 -7365.0 
-2260.738 1911.1881 -7525.0 
-2303.1267 1911.1881 -7525.0 
-2345.5156 1911.1881 -7525.0 
-2337.1318 1870.5515 -7365.0 
-2430.2935 1911.1881 -7525.0 
-2527.8862 1953.8566 -7693.0 
-2571.2212 1953.8566 -7693.0 
-2557.4595 1911.1881 -7525.0 
-2491.3635 1831.4388 -7211.0 
-2669.0322 1870.5515 -7365.0 
-2653.8435 1831.4388 -7211.0 
-2639.5356 1794.104 -7064.0 
-2625.468 1758.0391 -6922.0 
-2719.1196 1794.104 -7064.0 
-2758.9114 1794.104 -7064.0 
-2742.4438 1758.0391 -6922.0 
-2781.4365 1758.0391 -6922.0 
-2820.4285 1758.0391 -6922.0 
-2749.125 1690.2268 -6655.0 
-2841.466 1723.498 -6786.0 
-2879.692 1723.498 -6786.0 
-2861.5896 1690.2268 -6655.0 
-2899.0771 1690.2268 -6655.0 
-2881.4082 1658.4795 -6530.0 
-2863.6714 1627.4941 -6408.0 
-2899.7683 1627.4941 -6408.0 
-2935.865 1627.4941 -6408.0 
-2918.162 1598.0326 -6292.0 
-2953.6055 1598.0326 -6292.0 
-2989.0486 1598.0326 -6292.0 
-3024.4917 1598.0326 -6292.0 
-3004.981 1569.3331 -6179.0 
-2986.6565 1541.9034 -6071.0 
-3020.8547 1541.9034 -6071.0 
-3109.401 1569.3331 -6179.0 
-3089.2515 1541.9034 -6071.0 
-3123.45 1541.9034 -6071.0 
-3157.6482 1541.9034 -6071.0 
-3191.8467 1541.9034 -6071.0 
-3170.2493 1515.2357 -5966.0 
-3149.08 1489.3298 -5864.0 
-3237.4634 1515.2357 -5966.0 
-3271.07 1515.2357 -5966.0 
-3304.677 1515.2357 -5966.0 
-3281.2097 1489.3298 -5864.0 
-3259.4187 1464.694 -5767.0 
-3347.2744 1489.3298 -5864.0 
-3380.3064 1489.3298 -5864.0 
-3413.3389 1489.3298 -5864.0 
-3389.3625 1464.694 -5767.0 
-3365.48 1440.566 -5672.0 
-3397.4314 1440.566 -5672.0 
1740.205 740.03687 -2980.0 
1738.4548 746.4936 -3006.0 
1721.522 746.4936 -3006.0 
1689.8453 740.03687 -2980.0 
1717.4117 759.65533 -3059.0 
1700.18 759.65533 -3059.0 
1682.9485 759.65533 -3059.0 
1665.717 759.65533 -3059.0 
1648.4856 759.65533 -3059.0 
1646.1852 766.6087 -3087.0 
1628.796 766.6087 -3087.0 
1611.4066 766.6087 -3087.0 
1608.4757 773.562 -3115.0 
1605.2291 780.51544 -3143.0 
1587.5243 780.51544 -3143.0 
1584.3042 787.71716 -3172.0 
1566.4359 787.71716 -3172.0 
1548.568 787.71716 -3172.0 
1516.7054 780.51544 -3143.0 
1499.0006 780.51544 -3143.0 
1481.296 780.51544 -3143.0 
1477.0955 787.71716 -3172.0 
1459.2275 787.71716 -3172.0 
1454.5371 794.9188 -3201.0 
1436.5056 794.9188 -3201.0 
1431.7682 802.36884 -3231.0 
1400.4426 794.9188 -3201.0 
1395.3673 802.36884 -3231.0 
1364.3799 794.9188 -3201.0 
1372.005 810.06726 -3262.0 
1353.6301 810.06726 -3262.0 
1335.2549 810.06726 -3262.0 
1316.8799 810.06726 -3262.0 
1310.845 817.76556 -3293.0 
1292.2952 817.76556 -3293.0 
1273.7457 817.76556 -3293.0 
1255.1959 817.76556 -3293.0 
1236.6462 817.76556 -3293.0 
1218.0966 817.76556 -3293.0 
1199.5468 817.76556 -3293.0 
1180.9972 817.76556 -3293.0 
1173.3906 825.464 -3324.0 
1154.6663 825.464 -3324.0 
1135.942 825.464 -3324.0 
1117.2177 825.464 -3324.0 
1109.399 833.65906 -3357.0 
1090.4886 833.65906 -3357.0 
1082.1124 841.854 -3390.0 
737.2128 583.8345 -2351.0 
728.8965 587.8078 -2367.0 
720.7023 592.02954 -2384.0 
717.06323 600.22455 -2417.0 
698.5004 596.00287 -2400.0 
689.83307 600.22455 -2417.0 
676.2179 600.22455 -2417.0 
662.6028 600.22455 -2417.0 
653.5523 604.4463 -2434.0 
639.84143 604.4463 -2434.0 
626.13055 604.4463 -2434.0 
616.697 608.6679 -2451.0 
607.318 613.13794 -2469.0 
589.0837 608.6679 -2451.0 
575.2771 608.6679 -2451.0 
569.7173 617.608 -2487.0 
555.70776 617.608 -2487.0 
541.69836 617.608 -2487.0 
527.6889 617.608 -2487.0 
517.3973 622.078 -2505.0 
503.2865 622.078 -2505.0 
492.69064 626.54803 -2523.0 
478.47845 626.54803 -2523.0 
467.76242 631.26636 -2542.0 
